ncols         337
nrows         31
xllcorner     574379.737075
yllcorner     405163.76772
cellsize      27.960890377166
NODATA_value  -9999
288.1307 287.3318 283.6647 280.3626 277.847 277.1347 278.7792 277.9399 276.2509 275.0112 273.5282 273.7003 273.7944 274.2697 275.0004 278.0441 281.3904 283.2883 285.4545 286.8695 289.3016 288.909 287.0545 282.4392 281.2352 284.3503 286.8495 288.5167 290.3727 291.6874 291.316 290.0626 289.2033 288.3384 286.2603 283.7011 280.7552 276.532 271.9577 271.8448 272.6907 276.5165 279.6431 281.5667 283.3268 284.972 287.1344 288.2776 285.4615 283.7666 281.7237 282.9431 284.4982 283.4255 281.4511 278.8577 275.9897 269.5119 264.357 265.9988 269.7442 273.1281 276.2525 278.3228 280.0112 281.686 284.3258 286.06 287.2367 290.1192 290.1909 288.4471 288.1591 290.1446 293.6623 298.5947 299.6505 300.6404 301.4541 301.1694 301.4514 300.7699 298.6826 297.2758 294.9038 293.4841 291.7007 290.3241 288.4724 286.9799 284.7362 280.0359 283.5608 284.5273 283.457 283.1719 283.1602 282.6144 282.3953 280.8514 281.7407 283.0583 283.2493 284.4951 284.3793 284.4833 285.3407 284.9902 283.3403 280.453 279.5911 278.9052 276.9836 276.8008 276.0092 276.855 277.1007 277.0792 276.5977 275.6925 274.2998 268.1367 265.1618 262.6466 259.496 256.4077 255.4091 253.4733 251.0326 253.2707 258.8261 261.9268 265.1476 269.8635 271.4707 272.7009 273.7742 274.5184 274.8529 274.2041 273.7484 274.2604 273.2091 271.3323 270.4314 268.5147 267.0034 266.2934 266.5932 265.7528 263.6971 261.4098 259.4586 258.0742 257.6462 255.7894 254.196 253.2985 251.1949 250.6936 249.5106 248.5517 242.5986 242.8282 238.5073 237.6841 238.6302 238.1441 237.9953 237.7724 237.6852 237.8131 237.6411 237.4921 237.1672 237.0944 236.9225 236.6983 241.9694 247.0284 248.5092 244.4018 237.8474 236.1501 236.0206 235.891 235.7187 235.5186 235.6611 235.5981 236.0974 236.1376 236.4115 236.5464 236.5278 237.5338 237.6649 239.0221 239.216 238.7039 238.0866 237.8969 237.8013 238.3395 241.6022 239.7733 239.0428 238.9457 238.8919 235.6709 234.6886 234.7729 234.9486 234.7178 237.4527 246.1994 252.2952 252.1776 244.483 246.9164 252.7094 257.2115 259.2849 259.9471 257.0086 251.1657 244.7115 242.4538 234.8902 234.0574 234.1273 234.1172 234.3284 233.1883 234.1146 233.924 233.768 233.7462 233.8284 233.622 233.5775 233.5691 233.6561 233.8045 234.2367 234.6862 235.1068 235.4068 235.6512 235.0287 234.1753 233.9996 234.4374 235.3509 234.3365 233.5159 232.429 232.2151 232.2007 234.3299 233.4113 233.3598 233.8374 234.1874 236.8262 236.385 236.0417 235.9391 235.4121 235.4348 234.4435 232.0546 231.8416 232.4356 232.7609 231.8304 231.7769 232.3211 232.0676 232.0002 231.993 235.826 240.823 240.8128 240.2041 240.3757 240.8339 238.9331 235.6908 233.8662 236.3698 237.9274 239.6707 240.8474 241.988 242.9479 241.044 236.6947 233.8313 233.8872 234.7454 236.2348 239.1302 241.3711 243.9035 244.6254 245.1802 245.234 245.3274 246.2048 247.483 248.4086 249.466 250.5867 252.585 253.6525 254.4378 254.8089 254.4647 254.0061 253.3173 251.7567 251.5829 251.6428 251.8244 251.8116 251.5151 250.7312 250.1814 249.3355 248.8675 248.2743 246.5384 246.0112 245.9032 245.4469 245.1582
290.3021 289.3108 286.4453 283.4737 279.8853 277.292 275.0049 274.7181 274.1225 274.6767 274.5047 274.3622 275.4651 275.7371 275.4104 276.6947 280.6035 282.877 284.2401 286.0749 289.896 290.762 289.5452 285.0697 284.371 286.8104 288.7659 290.274 291.6964 292.5827 291.8461 290.4785 289.5638 287.9289 286.0822 283.4761 280.3726 275.7712 273.5128 275.0294 273.82 274.3028 276.6928 279.9671 282.3377 284.9117 287.6902 288.8899 286.2735 285.155 282.9022 284.5386 286.3296 285.0039 282.82 279.8681 277.4066 271.814 265.9605 264.238 268.0226 272.4216 275.0253 276.7246 279.1532 280.5929 281.9475 282.8813 284.6047 286.6328 286.8929 286.2417 289.3648 291.4903 293.9297 298.995 299.6045 298.9021 299.0946 300.2304 301.4008 301.3492 300.0522 298.8922 295.7374 294.319 292.8777 291.5502 290.2237 288.2807 284.7734 283.5232 284.8724 286.8159 285.9302 285.8886 286.0021 285.2552 284.6385 282.304 283.3374 284.7885 284.9374 285.4818 285.8696 285.5931 286.1542 285.7854 284.0159 282.3722 281.0751 280.0772 279.0547 279.1618 278.3722 277.9482 278.733 278.6563 278.4498 278.3596 275.5552 270.1152 267.4654 262.9333 260.3215 260.1241 259.4723 257.1923 254.7767 255.2967 259.1506 262.1234 264.9578 268.3279 270.9809 273.6347 274.7931 275.179 275.9108 276.8556 275.6839 274.5465 273.2225 271.7893 270.8445 270.0778 269.5323 268.4879 267.1902 265.6717 263.8331 261.7249 260.5041 260.2406 258.9891 256.8684 255.2451 254.7119 247.8563 248.3882 247.4626 247.1655 241.2824 239.3167 238.7206 238.6392 238.4366 237.9145 237.9638 237.8685 237.6873 237.6221 237.4734 237.4864 237.1922 236.9728 236.7937 239.725 246.9461 249.9811 249.3315 244.8253 239.4856 236.8863 236.6764 236.4862 236.1349 235.859 236.1798 235.9647 236.5787 236.4568 236.7622 236.6991 238.1902 238.4024 239.092 240.1001 240.5781 240.0965 239.2213 238.9939 238.7059 239.8469 241.8617 241.598 240.697 240.2297 240.1612 237.084 234.7918 234.4196 234.5158 235.8726 241.8278 249.2618 254.4441 254.1628 248.8354 246.8659 251.6019 257.639 262.1897 260.9948 257.6206 252.9411 243.882 236.8409 234.0056 234.0976 234.1862 233.9613 234.042 234.0393 233.1929 234.0896 233.8971 233.7267 233.7039 233.3163 233.7663 233.5419 233.6561 233.8045 234.2367 234.6862 235.1068 235.4068 235.6512 235.0287 234.1753 233.9996 234.4374 235.3509 234.3365 233.5159 232.429 232.2151 232.2007 234.3299 233.4113 233.3598 233.8374 234.1874 236.8262 236.385 236.0417 235.9391 235.4121 235.4348 234.4435 232.0546 231.8416 232.4356 232.7609 231.8304 231.7769 232.5434 232.4742 231.9568 231.8472 233.0292 236.3867 236.0544 235.0076 237.132 240.451 237.7935 234.6141 234.1265 237.9504 239.0797 239.4545 240.09 240.9378 241.6586 240.0344 235.8131 233.3027 233.7876 235.215 236.8363 239.3172 240.4852 243.4796 244.2438 244.5083 244.365 244.7558 245.6504 247.093 247.8409 248.7453 249.9676 252.1691 253.2213 254.204 254.7852 255.0343 254.772 253.7473 252.7477 251.3173 251.1452 251.2224 251.3807 250.8388 250.5591 250.2303 249.7102 249.4242 248.8618 247.3169 246.0202 245.4128 244.9908 244.7232
291.8146 290.8277 288.5635 285.4654 281.8647 278.7382 276.5797 275.9246 274.4844 274.8394 275.831 279.9052 280.456 279.6901 277.2565 276.8145 276.1411 279.0005 281.55 284.4077 287.8173 290.0839 290.4413 288.1207 285.3452 288.3399 290.2033 292.0107 293.1469 294.0681 292.2052 291.1229 289.2198 287.362 285.6842 282.7506 278.7779 275.9753 274.2319 276.7043 278.0168 277.1564 275.018 276.3932 280.244 283.8249 287.2823 288.9578 286.9479 285.5687 284.8041 285.6657 286.8154 286.0972 283.8867 282.6199 279.9224 273.6472 269.1931 265.4248 266.862 271.1279 274.2404 276.986 278.2934 279.0713 278.2153 277.9497 279.8397 282.0352 283.5228 286.2389 288.41 288.8539 290.3109 295.8007 297.2156 296.9492 297.7059 298.9524 301.2198 301.5099 301.1515 300.0769 297.4617 295.7336 294.1079 292.6579 290.8761 288.5273 287.4117 287.1846 286.8664 288.4917 287.8796 287.9389 288.0345 286.8422 285.2959 283.2943 284.8369 286.1613 286.4742 286.2841 286.5918 286.3927 286.4334 285.8175 284.5723 283.1116 281.6665 280.6953 280.2319 280.413 280.4067 280.0428 280.4134 280.428 280.4794 279.5838 276.8484 271.793 268.9304 265.9924 263.9625 263.6501 261.7134 259.2863 258.6587 257.7438 260.5185 262.4552 264.6841 267.6487 270.5694 273.1562 275.3442 277.0763 277.7992 278.2215 276.391 274.323 272.7226 271.5781 270.8643 270.0106 268.9348 267.1002 265.5907 265.7934 265.0289 263.6586 262.9639 262.1113 261.0573 258.9806 257.0465 255.2585 248.8333 244.3082 244.7263 244.2535 239.3141 239.4596 238.8855 238.5275 238.2706 238.121 238.0917 237.8683 237.8784 237.6889 237.6042 237.5302 237.1285 237.1906 237.1175 243.9146 249.1037 251.1095 248.8758 244.9908 240.417 237.704 237.2435 237.1859 236.6455 236.5787 236.5929 236.5542 236.8481 237.0027 236.9888 237.0745 239.1882 239.7305 240.3787 241.1684 241.9034 242.3794 241.6013 240.4706 238.3619 240.3298 241.6621 243.1436 242.555 241.8521 242.2074 237.084 234.7918 234.4196 234.5158 235.8726 241.8278 249.2618 254.4441 254.1628 248.8354 246.8659 251.6019 257.639 262.1897 260.9948 257.6206 252.9411 243.882 236.8409 234.0056 234.0976 234.1862 233.9613 234.042 234.0393 233.1929 234.0896 233.8971 233.7267 233.7039 233.3163 233.7663 233.5419 233.3488 233.3809 233.4506 234.0953 234.7739 234.8459 234.7329 234.4843 233.8502 232.9563 232.8091 232.731 232.4199 232.4598 232.4107 232.351 233.4679 232.9218 232.583 232.4978 232.602 233.5702 235.4605 236.4531 236.3123 236.5134 235.9038 236.512 235.762 232.6206 232.1703 232.4132 231.1543 233.02 232.7287 232.5321 232.9433 232.1043 231.3076 232.6457 232.1618 232.8881 233.0082 234.708 237.0076 234.6378 233.12 237.1527 240.4973 240.2878 239.9987 239.9774 239.8285 240.642 239.2878 236.1631 232.8412 233.61 235.3506 236.8112 238.853 240.3864 243.2672 242.7925 242.8132 243.1721 244.4174 245.3582 246.0491 247.0459 248.1413 249.0409 251.4863 252.5659 253.6287 254.533 255.0251 254.9395 254.2794 252.9068 251.3619 250.8734 250.5227 250.742 250.2609 250.134 249.7402 249.3596 248.9442 248.8017 247.8319 247.0228 245.9146 244.8736 244.2517
293.4586 292.3648 289.1549 286.4295 283.9197 280.3591 277.9573 275.7312 275.0701 275.3073 277.5778 282.2725 283.991 284.8213 283.5441 281.3051 279.7078 278.7296 277.1783 279.4191 285.5956 287.4356 290.15 289.838 287.5483 287.9711 290.3656 292.5916 293.8517 294.335 292.9849 291.3344 288.9549 286.9218 284.3737 280.7207 277.6024 276.5629 275.5901 277.0858 280.652 281.4448 280.2892 276.1252 277.24 282.013 286.626 288.6418 287.9391 286.5184 285.825 286.0193 287.2533 286.5873 285.2378 283.3788 281.0817 275.6705 271.0366 266.8359 265.2814 270.0501 273.6167 274.6426 273.9654 273.6687 277.6976 280.023 279.5488 281.1884 283.0998 285.2579 286.2707 288.2276 290.1241 292.9536 295.6875 297.6929 298.249 298.7164 301.0189 301.677 301.6542 300.4859 297.9257 296.3956 294.5571 292.8944 291.5702 290.4416 289.4092 288.7827 288.9312 289.9153 289.7275 289.7509 289.0616 287.7334 286.0179 285.4219 285.6933 286.7513 287.2983 287.1667 287.1333 286.4749 285.9316 285.2687 284.4294 283.3411 282.3546 281.8946 281.6734 281.7481 281.6274 281.4914 281.5669 281.3232 281.0025 280.2867 278.0367 273.7259 271.0217 268.8882 267.508 266.402 263.8345 262.3979 261.5247 260.2054 260.6771 262.8489 265.0145 267.526 270.0431 272.1551 274.0092 275.4886 276.7796 279.6091 276.3026 272.8889 271.0806 269.7055 269.1131 268.8009 267.5678 265.4858 264.8144 265.862 265.8618 265.1706 264.2458 263.3277 261.2996 258.6817 256.6997 254.3057 248.6681 246.5913 243.644 240.8867 239.0373 241.0233 240.7811 240.6059 239.049 238.6798 238.3372 238.1744 238.3222 238.298 237.9442 238.3331 238.8922 237.7331 243.8574 243.9146 249.1037 251.1095 248.8758 244.9908 240.417 237.704 237.2435 237.1859 236.6455 236.5787 236.5929 236.5542 236.8481 237.0027 236.9888 237.0745 239.1882 239.7305 240.3787 241.1684 241.9034 242.3794 241.6013 240.4706 238.3619 240.3298 241.6621 243.1436 242.555 241.8521 242.2074 241.3562 235.3988 235.0293 235.3224 240.2784 245.9077 253.3048 256.987 256.8932 254.3131 251.4286 250.2012 254.5153 261.3391 259.8104 256.1295 250.1518 241.2936 234.278 233.8827 233.8534 234.0119 233.9571 233.7824 233.8484 234.0727 232.9632 233.8941 233.8323 233.8339 233.3434 233.6628 233.7906 233.5098 232.8079 233.5318 233.9226 234.6104 234.5713 234.3138 233.3491 232.5513 232.613 232.2255 232.2315 232.3716 232.3484 232.4773 232.3972 232.0031 232.1228 232.3003 232.0705 232.0827 232.4282 235.0759 236.4696 236.226 236.027 237.0472 236.9754 235.3441 232.3188 231.4988 232.5968 233.1713 232.6579 232.5632 232.9847 232.2828 232.6382 232.7642 230.9777 232.0918 231.8995 232.7539 232.7599 233.9587 232.5329 234.0766 238.6784 240.4756 240.6186 240.2246 239.4584 238.7441 240.1326 238.4687 235.4558 232.6322 233.0074 234.27 235.547 237.5573 239.8589 240.815 240.314 240.5301 241.3224 242.8932 244.2867 245.3579 246.1274 247.0178 248.4433 251.149 252.0968 253.1213 254.1127 254.6505 254.9148 254.6399 253.4965 251.3389 250.6346 250.0995 249.9577 250.0004 249.6763 249.1646 248.7698 248.2508 248.3165 247.7397 246.9966 245.7256 244.8324 243.8947
293.7592 292.3049 288.6118 286.4056 283.6486 281.1014 278.3352 275.8826 275.2502 276.6548 279.6096 283.1261 284.9019 286.4176 286.9295 285.6211 284.4832 283.8148 283.1487 281.6384 280.5324 285.0739 288.116 289.2549 289.1988 288.7431 289.761 291.6627 292.8422 294.5103 294.4134 292.7146 290.1305 286.3862 281.653 279.6781 283.0833 282.7906 277.7626 277.2177 281.1035 283.1243 283.4168 280.4666 276.7239 280.5265 285.2468 288.4568 288.303 287.573 286.8022 287.0225 287.6393 287.5105 285.9184 284.7928 283.1542 278.7052 273.6105 268.8736 266.1865 267.3938 269.7381 271.38 272.4433 272.7786 282.7958 285.7515 286.9803 286.6388 284.8619 285.3775 285.9377 287.8699 289.5198 294.4126 296.6862 299.0207 300.0183 300.5316 301.1013 301.5066 301.2587 300.177 297.5343 296.4937 295.4318 293.9042 292.272 291.4149 290.9708 290.7386 290.6667 290.9925 291.1382 290.8288 290.1687 288.2821 286.9086 285.9548 286.5606 287.4251 287.8555 287.3449 286.9055 286.1393 285.308 284.9173 284.1728 283.5209 282.4913 282.0045 282.4137 282.6031 282.3198 281.9983 281.6024 281.0493 280.4247 280.0822 278.5168 275.3309 272.7114 270.7477 269.7646 269.43 267.2469 264.9308 263.2532 262.2308 261.1942 262.9858 264.8683 267.5561 269.5504 270.9354 272.3427 273.7917 275.4615 278.161 275.4111 269.6194 267.0997 266.1817 265.3618 268.8009 267.5678 265.4858 264.8144 265.862 265.8618 265.1706 264.2458 263.3277 261.2996 258.6817 256.6997 254.3057 248.6681 246.5913 243.644 240.8867 239.0373 241.0233 240.7811 240.6059 239.049 238.6798 238.3372 238.1744 238.3222 238.298 237.9442 238.3331 238.8922 237.7331 243.8574 247.5786 250.5638 251.452 249.197 245.8998 242.5672 239.2586 238.306 237.9327 237.8878 237.7389 237.9029 237.4713 237.2616 237.3724 237.3696 237.4286 240.4425 241.4648 241.9178 242.5255 243.2519 244.0697 244.2243 242.9734 241.7334 240.642 242.1205 243.7173 244.4469 244.3507 244.9733 245.4288 240.4865 236.2435 236.8252 243.8081 250.705 252.6693 257.0192 259.9618 258.5497 256.5002 254.8583 257.807 258.4035 254.5815 252.4349 246.545 238.5332 234.1846 234.139 233.8572 233.8918 233.8562 233.6467 233.5721 233.8176 233.9784 232.8576 233.9099 233.7396 233.5047 233.3691 233.7017 233.1215 232.963 233.0871 232.8216 233.0381 234.2905 233.8358 232.8953 232.5007 232.4122 232.3801 232.3447 232.388 232.3339 232.2621 232.5275 232.7387 233.4289 232.0813 232.2202 232.0882 232.0026 234.7648 235.6754 236.1651 236.1531 236.6256 235.1357 231.4889 231.8963 233.0925 232.992 232.8361 232.5531 232.5563 233.4038 232.4597 232.4558 232.5538 232.0778 231.099 231.9506 231.8744 232.1451 232.4268 233.2826 237.29 239.1405 239.245 239.5888 239.9879 238.353 238.027 239.621 237.6531 234.0719 232.4239 233.0161 233.99 234.9356 237.0397 239.1232 238.1906 238.7591 239.6596 240.926 242.0931 243.297 243.9844 245.8777 247.1477 249.4109 250.5907 251.6634 252.8015 253.5228 254.2152 254.6471 254.4748 253.5979 252.009 250.2169 250.0687 249.5287 249.5723 249.0819 248.7293 248.3184 247.8257 247.6593 246.9456 246.0659 245.0355 244.1632 243.704
293.8493 292.1126 288.1094 285.431 282.9714 280.5972 277.9085 275.933 275.725 278.9556 281.9228 284.0586 285.3982 287.0199 288.3103 288.0378 287.2613 286.7468 286.5429 285.967 283.2981 281.2937 285.3509 287.9619 289.5861 289.8173 289.5476 290.2668 291.4973 293.9418 294.7694 293.6774 290.8415 284.4981 281.7058 285.3519 286.772 285.7313 280.5673 277.9348 281.2493 283.8429 284.9398 283.5747 279.2843 279.8535 283.4425 287.3998 288.3719 288.6148 288.2446 287.9627 288.4561 288.709 287.4976 286.5205 284.9003 279.2532 274.9001 269.8863 267.0951 268.6121 273.9697 277.7848 277.8673 277.4902 283.8093 285.6389 287.0349 288.6495 288.3807 287.9912 287.1863 286.8502 288.2589 293.599 296.351 299.6381 300.7189 301.0606 301.3132 301.0866 299.9879 299.0193 296.9949 295.8162 295.4936 294.3765 293.1443 292.4506 292.1459 291.8853 291.7805 291.881 292.0739 291.7831 290.7013 289.3788 288.2647 287.0957 287.1507 287.7724 287.381 286.7459 286.0543 285.294 284.979 284.7297 284.153 282.9052 281.3684 280.2346 281.6741 281.8074 281.8369 281.9983 281.6024 281.0493 280.4247 280.0822 278.5168 275.3309 272.7114 270.7477 269.7646 269.43 267.2469 264.9308 263.2532 262.2308 261.1942 262.9858 264.8683 267.5561 269.5504 270.9354 272.3427 273.7917 275.4615 278.161 275.4111 269.6194 267.0997 266.1817 265.3618 266.8199 266.8415 265.1663 263.9604 265.0315 264.7399 264.2328 264.1044 262.9068 260.171 257.2856 253.9683 250.9507 247.1705 246.5472 244.4938 242.4668 240.0628 245.1193 246.9703 245.9509 243.7806 239.2345 238.1624 238.1947 238.02 237.9789 240.2452 239.4554 242.3062 243.8059 247.5452 249.9624 251.8246 251.5834 249.1805 246.2977 243.724 240.6567 239.5073 239.5858 239.3695 239.3757 238.8573 238.0166 237.817 237.7567 237.5092 237.889 242.1943 243.4169 243.3317 243.811 244.6535 245.2434 245.5459 245.2356 243.7041 240.9123 242.2427 243.7212 245.2578 245.9751 246.7216 247.6542 248.8204 242.4179 239.0461 248.1109 253.5655 259.01 258.5594 260.6239 262.218 261.7192 260.1921 260.9727 252.8746 247.7206 246.3203 241.6688 236.9567 235.1982 234.2551 233.9076 233.8094 233.8264 233.6104 233.5529 233.3814 233.7149 233.7912 232.9587 234.1468 233.8556 232.9889 233.065 232.8189 232.8221 232.8436 232.8548 232.8993 233.0023 233.3085 233.0919 232.5936 232.5323 232.4214 232.411 232.3314 232.3631 232.4393 232.6418 232.2001 232.1426 232.1724 232.1002 232.501 232.4871 234.3782 235.3864 234.7499 234.9869 232.1932 231.4969 233.103 234.3718 233.3868 233.2085 233.3901 233.4893 235.9137 236.7535 232.2556 232.2111 232.2356 232.2993 231.0623 231.8819 232.1815 232.039 232.0873 235.9082 238.2552 239.3856 239.3395 239.5071 239.3861 238.089 238.4138 239.8372 237.9081 236.2513 232.2343 232.5153 232.9972 234.5622 235.6773 236.2422 237.6717 238.3884 239.6026 241.8216 242.7003 244.0792 245.2048 245.7025 246.7416 248.8315 249.8741 251.1224 252.0244 253.1546 253.776 254.1918 254.0163 253.3542 251.8063 249.7494 249.6909 249.4928 248.8583 248.6594 248.5711 247.8197 247.2786 246.8297 245.9933 245.3093 243.7385 242.9957 242.8596
293.5879 289.7332 287.966 286.0687 282.9576 280.215 277.4191 275.4081 277.0142 281.2233 284.08 286.1411 287.0534 287.8333 288.9575 289.608 289.1682 288.7305 288.4813 287.8576 286.5992 285.9887 283.7545 285.0049 288.3886 289.8383 290.5365 291.1844 291.3911 293.8432 294.4738 293.7221 291.1522 287.2932 284.9456 288.103 289.4243 287.704 282.2766 279.1932 280.9245 284.2775 285.1531 284.6976 282.1113 279.3507 282.1636 286.3663 287.7792 288.6399 289.0251 288.8733 289.1432 289.851 288.7012 287.0374 285.2621 279.7712 276.4088 272.074 267.4052 268.5933 272.31 275.1643 277.8421 278.472 282.6381 285.0949 286.6413 288.3054 289.568 290.2297 290.5667 289.1739 289.0262 292.6389 295.732 298.596 300.8266 300.5357 301.1967 299.6077 298.5582 297.809 295.9862 295.8162 295.4936 294.3765 293.1443 292.4506 292.1459 291.8853 291.7805 291.881 292.0739 291.7831 290.7013 289.3788 288.2647 287.0957 287.1507 287.7724 287.381 286.7459 286.0543 285.294 284.979 284.7297 284.153 282.9052 281.3684 280.2346 281.6741 281.8074 281.8369 281.6714 281.211 280.9035 280.3282 279.3392 278.1234 275.0795 274.0056 272.3391 272.0495 271.1895 269.0409 266.4652 264.913 263.9492 263.5385 263.5154 264.5376 266.1564 267.7436 269.2209 270.6187 271.994 274.082 277.485 275.9378 269.3087 265.4139 263.0413 263.5247 264.6374 265.6991 263.968 262.827 262.8352 262.6179 261.8774 262.2219 261.4076 259.5185 256.5776 253.4237 248.1553 245.969 245.3246 242.2311 239.8258 240.2989 246.493 249.5699 250.2266 248.775 242.3504 239.1307 240.6083 241.3228 242.7501 244.1026 241.7861 244.2143 246.737 250.8656 253.4623 254.3627 253.3976 250.5459 248.0173 245.5044 242.0948 240.9941 241.1722 241.1741 241.2833 240.1678 239.0595 238.341 238.2139 238.1974 239.1644 244.136 245.162 244.8337 245.2625 245.559 246.362 246.8409 246.8133 245.3925 241.7222 242.3935 243.8321 245.59 247.0136 247.9414 249.5676 251.6366 253.7428 255.4082 253.5074 256.8504 261.434 263.6477 263.8407 264.4176 264.7263 263.3359 262.1275 250.2695 250.4766 245.3925 240.2418 237.2854 235.3643 234.3018 234.2615 233.9514 233.6728 233.495 233.4999 233.5689 233.7149 233.6736 233.6475 233.1289 234.0601 233.3522 233.3837 233.3427 233.2043 233.4417 233.3634 233.5555 233.5118 233.4069 233.2146 232.6133 232.6674 232.8695 232.9191 233.0448 232.8889 233.0704 232.8474 232.4925 232.5101 232.5051 231.9752 231.8138 232.1136 232.0616 232.1365 231.632 232.496 232.05 237.8046 238.7393 238.0191 236.2469 235.468 236.4268 237.6077 242.8319 245.2986 235.5732 231.8185 231.8618 231.9774 232.265 230.5509 232.0575 231.9946 232.3636 235.6084 238.2119 239.0885 240.1118 240.4109 239.6012 238.8141 239.1063 239.4889 238.0221 236.8321 233.1843 231.8611 232.4039 232.8942 233.9871 234.5185 234.7948 236.9182 240.6287 242.2444 242.9945 244.0413 245.188 246.1673 247.2121 248.9745 250.1027 251.2571 251.9337 252.8866 253.6595 253.8469 253.7653 252.9547 251.8106 249.9447 249.3235 249.181 248.9343 248.2271 247.8594 247.3261 246.6704 246.2141 245.1317 244.1031 242.5695 241.7845 241.6573
291.8119 289.4622 287.4701 285.8759 283.4442 280.658 277.3084 276.0706 277.4682 281.7494 284.887 287.3931 288.4491 289.2345 290.3118 290.6591 290.6339 290.6634 290.5987 290.5438 289.6385 289.1511 289.0156 285.9086 285.3322 287.7375 290.029 291.5618 292.6944 293.5113 294.2558 294.0535 292.502 290.5746 289.4781 289.9268 290.32 288.4969 282.8114 280.0786 281.1037 284.2459 285.7673 286.0002 285.0387 281.8228 280.4314 285.986 287.9046 288.6237 289.2872 289.5974 290.0361 290.3484 288.594 286.2436 282.8448 279.7712 276.4088 272.074 267.4052 268.5933 272.31 275.1643 277.8421 278.472 282.6381 285.0949 286.6413 288.3054 289.568 290.2297 290.5667 289.1739 289.0262 292.6389 295.732 298.596 300.8266 300.5357 301.1967 299.6077 298.5582 297.809 295.9862 295.0363 294.4263 293.5997 292.64 292.3003 291.9917 291.4838 291.4159 291.6104 291.6862 291.7018 291.1621 290.1023 288.9355 287.9853 287.9079 287.8265 286.6608 285.6544 284.5562 283.9597 284.0038 283.7479 283.0525 281.883 280.0318 278.1849 279.8693 280.2793 280.8977 280.5364 279.7264 279.1209 279.3414 278.7642 276.5312 273.9072 272.7303 272.599 271.9482 270.7751 269.4819 268.08 266.6865 265.7152 265.2416 264.4198 264.2197 265.0618 266.3855 267.649 269.1381 270.7846 272.7576 276.2308 276.4186 271.2693 265.7527 262.0344 260.861 262.6594 263.2963 262.6756 260.5649 260.4734 259.8242 258.6096 259.4572 258.5265 257.4037 255.5951 253.3417 247.4159 245.0874 243.5201 240.5504 240.2743 243.057 245.8269 248.2754 251.4995 252.75 251.5333 250.8113 247.055 246.7439 247.2337 246.8228 243.2796 245.2612 249.2629 254.101 256.1866 256.4398 254.9965 251.7278 248.8595 246.3599 244.3854 243.0504 242.3492 242.9006 243.057 242.1094 241.002 239.351 238.6205 238.6837 239.6611 245.5012 246.9177 247.1656 246.6974 247.2983 247.676 247.9405 248.3765 247.4092 241.3886 242.3157 244.07 246.0515 247.5212 248.935 250.8306 253.3879 256.5893 260.721 259.7212 259.9679 263.6183 265.48 267.199 267.3457 266.7051 264.896 261.9056 252.1052 253.7343 247.9846 241.5831 238.4241 236.0377 235.3995 234.6006 234.1773 234.4287 233.493 233.4648 233.5312 233.6054 233.6485 233.6851 233.8614 233.9609 233.6829 233.5637 233.6107 233.4226 233.697 233.4993 233.5168 233.1811 233.2775 233.389 233.0372 233.0601 233.0668 233.079 233.106 233.1939 232.7944 232.609 232.5038 232.6388 232.4663 232.2608 232.1929 233.8136 233.3666 232.9101 232.7043 232.9749 237.4053 241.725 243.3226 244.485 244.2719 243.7901 244.5212 245.3291 251.3053 255.159 248.5791 238.1884 231.6729 231.399 231.8049 232.221 230.6596 231.8564 232.0972 234.4287 236.009 235.9025 237.6779 238.4936 239.1271 238.9828 239.177 238.9198 238.3811 237.2995 234.2119 231.7269 232.1021 232.2216 233.0509 233.2573 234.1066 236.8607 240.6599 241.8948 242.506 243.5416 244.7958 245.9913 246.7372 248.9052 250.2034 251.2471 252.3427 253.1195 253.8025 254.1279 254.0148 253.4075 252.3293 249.9088 249.0906 248.8379 248.4686 248.0747 247.504 246.9295 246.2945 245.9328 244.0384 242.7215 241.854 241.1633 240.8965
291.2067 287.6307 286.2279 284.6711 282.8177 279.7744 277.3312 276.9662 278.8206 281.0991 283.3261 286.9157 288.6531 290.0975 291.4372 292.2154 292.6275 292.3792 292.692 292.2825 291.6832 291.7921 291.9492 291.0507 288.792 287.5434 287.8863 290.6429 292.6944 293.5113 294.2558 294.0535 292.502 290.5746 289.4781 289.9268 290.32 288.4969 282.8114 280.0786 281.1037 284.2459 285.7673 286.0002 285.0387 281.8228 280.4314 285.986 287.9046 288.6237 289.2872 289.5974 290.0361 290.3484 288.594 286.2436 282.3531 280.3084 277.2132 272.1418 268.0993 267.8495 274.4646 277.8871 279.3623 280.8592 282.4951 283.0133 285.3458 287.0819 288.9717 290.3093 291.3045 291.3111 290.5406 294.3287 296.3568 298.1205 299.6996 300.0356 299.8014 298.5496 297.1137 296.5433 294.4547 294.1056 292.873 292.109 291.2767 290.8754 290.7033 290.3199 290.1366 290.226 290.613 290.8489 290.6914 289.7699 289.0041 288.4521 287.7786 287.0073 285.3632 284.788 283.4636 281.8295 281.9655 282.0114 281.453 280.6955 278.4947 276.9175 278.1071 278.6076 278.9095 278.7891 277.9581 277.4296 278.0836 277.0165 275.4929 272.9008 271.522 271.0459 270.419 269.7654 269.0098 268.0914 267.1896 266.8286 266.7866 266.287 265.4345 265.1213 265.7016 266.6796 267.8488 269.2204 271.3112 273.8038 274.398 271.3678 267.2277 261.7938 258.8178 260.4993 261.7265 260.6396 256.7072 257.2923 256.0962 254.7678 255.6222 255.5425 255.1481 254.4085 252.3475 246.2681 244.3428 243.3209 239.8021 244.7762 247.0681 248.2466 251.7564 254.3679 256.4837 256.185 254.7653 251.0045 249.8805 249.0783 248.057 244.5422 247.5981 250.9032 255.8429 258.0876 258.4311 256.6479 253.8724 250.513 247.9811 246.3022 245.1324 243.5687 244.3127 244.7588 244.3286 243.1451 240.652 239.0361 238.8256 240.473 246.1126 247.7465 248.4915 247.9786 248.2206 248.7751 249.6676 250.1966 249.0692 241.6577 242.6131 245.2517 247.4773 248.8727 249.7611 251.3277 254.2505 257.4969 262.6868 262.3166 262.974 265.2639 267.8935 269.3407 269.391 267.5359 264.618 260.9075 253.7326 252.3194 247.3657 245.8994 239.8214 237.4182 235.6777 235.3149 235.0895 234.7066 233.7632 233.4572 233.3647 233.416 233.3941 233.5915 233.7111 233.4297 233.1677 233.0496 233.0754 233.3956 233.3434 233.1319 232.8409 232.6649 232.7805 232.9395 232.7629 232.7569 232.7564 232.921 232.7091 232.6994 232.6687 232.5546 232.2531 232.1745 232.1798 232.2529 232.6245 235.6393 236.4882 236.6144 237.0598 236.8644 238.6691 242.9118 245.7037 248.6715 249.9427 251.4611 251.9729 252.2548 254.9853 259.3336 256.5707 249.8656 241.2276 231.9301 231.4175 232.0672 232.1946 231.0411 232.0745 233.4733 231.6196 232.1562 233.0725 234.5505 237.1011 237.5452 237.2891 237.9744 237.7102 237.2164 234.5265 231.49 231.6477 231.9559 232.4056 232.5349 233.7155 236.3132 239.8269 240.8775 241.1891 242.4494 243.7271 244.7126 246.186 248.668 249.666 250.7514 251.9101 252.8936 253.9053 254.5947 254.2837 253.8955 252.7898 250.0816 248.5665 248.2845 247.8619 247.2447 247.1285 246.4922 246.1024 245.6792 244.2878 242.9246 241.7308 240.8331 240.4344
291.2067 287.6307 286.2279 284.6711 282.8177 279.7744 277.3312 276.9662 278.8206 281.0991 283.3261 286.9157 288.6531 290.0975 291.4372 292.2154 292.6275 292.3792 292.692 292.2825 291.6832 291.7921 291.9492 291.0507 288.792 287.5434 287.8863 290.6429 292.7796 294.2909 294.5804 294.5724 293.7858 292.6663 291.8752 291.5228 290.4633 287.7371 281.7315 281.6631 281.5739 283.8921 285.8121 287.4438 286.8932 285.2831 282.3004 285.3929 287.5211 288.6202 289.4279 290.3024 290.8069 290.8905 289.1859 287.5985 283.0612 280.4564 277.197 271.7159 268.5215 268.5564 275.4549 278.9243 280.8818 282.374 285.4348 286.9589 287.9465 287.9904 287.9273 289.1335 290.3884 291.6062 291.5974 295.5883 297.5947 298.3032 298.9938 298.4127 297.9451 297.3077 295.9113 295.288 293.0914 292.4955 291.7346 290.7194 290.0145 289.4446 289.1212 289.0172 288.867 288.9156 289.5365 289.9401 289.8353 289.1467 288.4088 287.4968 286.4103 286.0179 283.9222 283.3238 282.7232 281.3092 280.5923 280.6719 280.2708 278.8388 277.5327 275.7702 276.377 276.7852 276.9915 276.7823 276.2558 275.5171 276.396 275.5701 274.2697 271.6182 270.4537 269.4562 268.8505 268.4985 267.8709 267.1648 267.0055 267.2193 267.6393 268.0315 268.0325 267.017 265.7533 265.8853 266.9144 267.8826 269.5719 271.6169 271.6338 269.0059 265.5042 261.2802 257.0206 257.6203 259.5342 258.2228 253.0187 253.4999 251.5759 251.0074 251.6822 252.5836 253.2172 252.8557 251.658 246.1049 242.7024 241.8679 245.8164 250.6545 251.601 252.2899 254.2568 257.8862 259.9193 259.1613 256.7675 254.6199 252.1941 251.2277 248.3995 245.4814 250.2113 252.7311 257.3676 259.4467 259.6714 257.5826 254.8276 252.3514 249.4255 247.6227 246.5778 245.5575 245.6285 246.5157 246.445 245.6769 241.795 239.1865 239.0524 241.0008 247.0618 248.7741 249.7351 249.7562 249.599 249.2924 250.4657 251.705 250.971 242.7992 243.146 246.1213 249.24 250.6053 250.8198 251.6541 254.0228 257.0486 263.2693 264.0377 264.8298 267.2272 269.483 271.0948 270.2442 267.7322 265.5899 260.3573 257.4511 254.7415 253.3761 256.2621 249.4356 242.6571 239.2097 236.1224 236.0911 235.1426 234.4567 233.6534 233.6277 233.3976 233.4372 233.1519 233.4566 233.1805 232.9892 232.9012 232.8945 233.1157 232.9739 232.7984 232.7212 232.7609 232.911 232.6949 232.7685 232.9929 233.284 233.0266 232.6634 232.674 232.5357 232.8303 232.4195 232.3946 232.0199 232.858 233.5275 234.1254 238.1856 238.7155 238.3792 238.8218 241.3687 244.1029 246.8236 249.7664 252.4487 253.6541 255.9723 257.391 258.463 260.6787 259.4152 254.3574 248.8993 242.3161 234.481 231.6499 232.1085 231.6744 231.9199 231.8324 231.4973 231.0999 231.3446 233.5138 233.9227 234.1151 234.6607 234.106 234.4016 234.6825 233.6028 231.5173 231.2354 231.7824 231.9939 232.2331 232.7556 234.6032 237.6781 238.6671 239.0853 240.766 242.3851 243.8514 245.5325 247.897 248.6687 249.6544 250.8402 252.3681 253.8077 254.7421 254.9066 254.1423 253.5682 250.0792 248.6938 248.0157 247.8678 247.6655 246.99 247.0331 245.4025 245.0766 244.3085 243.0291 241.9657 240.8413 240.0669
291.4545 288.0122 286.6111 284.5668 281.872 279.5293 277.0891 277.9864 280.4947 283.5382 285.6205 287.6385 289.1658 290.9034 292.3636 293.6872 294.3182 294.1199 294.8141 294.6749 293.5171 293.98 293.6294 293.7235 292.1187 290.5001 288.1633 289.532 292.3891 295.0353 295.6264 295.8806 296.0398 294.6944 293.3614 291.7489 288.1007 283.3788 283.3253 285.9472 285.4755 284.8815 285.8234 287.763 288.295 287.8061 285.7358 284.9384 287.1591 288.749 289.7204 290.5338 291.0092 290.914 289.1216 287.8698 284.3889 281.7855 278.0439 271.661 269.0916 269.5868 275.3623 278.8493 281.4781 283.3349 286.6057 288.6172 289.8906 290.2054 290.763 290.3923 291.1302 291.7415 292.307 295.3446 297.4167 298.1383 298.4501 296.7963 295.7983 295.2012 294.2228 293.8857 292.1469 291.2693 290.4467 289.6926 288.8277 288.4348 287.7759 287.56 287.396 287.9163 288.325 288.6871 288.4413 287.4453 286.6064 286.0992 285.1865 284.5614 282.6623 281.6558 281.4659 280.5937 279.477 278.256 277.9215 277.3984 276.0513 273.895 274.3934 274.9239 274.9625 274.909 274.0175 273.5806 274.5168 273.6742 272.2521 269.0744 268.4261 267.8036 267.0508 266.9786 266.3991 265.3791 265.5314 266.0238 267.4716 268.7786 269.4367 268.3554 266.4544 265.2849 265.4117 266.3049 267.6991 269.4076 269.1368 265.999 262.4064 258.7358 254.8782 253.8631 255.0837 254.0398 249.3998 247.9652 246.4251 245.4737 245.3101 247.2158 250.6932 250.9879 250.6032 246.8598 241.3002 241.8768 245.7594 252.843 254.5572 255.8054 257.235 260.2554 262.7997 261.5978 259.3361 257.7231 255.5607 253.2054 250.215 247.1546 248.5062 253.0907 257.5994 259.4538 259.2944 257.6065 254.8426 253.1439 250.7068 248.7775 248.1372 247.1919 247.0582 247.3976 247.1492 245.7057 240.9091 239.4059 239.1874 241.4398 247.5523 249.5451 251.1398 251.5197 251.086 250.8588 250.7979 252.4145 253.1218 246.3007 243.0764 245.6718 249.2022 251.2006 252.2655 252.6203 254.2156 256.6708 263.3224 265.1554 266.5674 268.5711 270.4187 271.4001 270.3617 268.1886 265.8584 262.8991 265.0473 263.7232 262.6448 260.6521 256.1525 253.064 251.1033 241.481 236.9488 235.9867 235.0803 234.4801 233.9104 233.4871 233.3689 233.231 233.1281 233.1118 232.8805 232.8545 232.797 232.7774 232.725 232.6533 232.6971 232.8871 232.7771 234.3183 233.6175 233.4374 233.7943 234.4247 232.6676 232.7698 235.6388 236.4633 234.945 234.0204 235.2318 235.9602 239.045 236.9466 235.8473 239.1667 239.2689 239.7988 240.8447 244.4289 247.3629 249.9961 252.9215 254.2874 256.9073 258.8845 260.4806 262.455 261.5347 258.5927 255.4586 249.1581 239.4262 232.0407 231.9724 232.1203 231.1679 231.6281 231.6045 231.257 231.1259 231.8002 232.7828 232.7126 232.5561 231.979 232.0188 232.6228 231.6778 230.6607 230.8835 230.8856 231.5026 232.2331 232.7556 234.6032 237.6781 238.6671 239.0853 240.766 242.3851 243.8514 245.5325 247.897 248.6687 249.6544 250.8402 252.3681 253.8077 254.7421 254.9066 254.1423 252.0561 250.0792 248.6938 248.0157 247.8678 247.6655 246.99 247.0331 245.4025 245.0766 244.3085 243.0291 241.9657 240.8413 240.0669
292.7285 288.2035 286.0139 283.8023 281.8703 278.6798 277.6711 278.1758 282.3567 285.1316 288.1879 289.2249 290.5315 291.7231 293.11 294.6823 295.5003 295.937 296.0477 296.4579 295.1308 294.7716 295.057 295.2524 293.6694 292.6947 289.9373 290.4174 292.4213 294.951 295.8555 296.4941 296.2684 295.3867 293.6159 290.1021 286.0063 284.7224 288.2931 288.7825 288.2908 288.1455 287.118 288.4369 289.4116 289.4563 287.8852 285.2419 287.3987 288.8053 289.8234 290.5106 290.4831 290.1128 288.5047 286.7578 283.4467 281.3401 278.7797 273.0381 269.6202 269.8407 274.1654 278.8849 281.9149 284.2477 288.3699 289.7658 290.787 291.6799 292.4547 292.2196 292.4431 293.0015 293.3698 294.9247 296.5038 297.6926 297.7733 296.7625 294.9303 293.2286 292.3395 292.0053 290.6833 289.9291 289.052 288.3954 287.6605 287.0139 286.7231 286.5011 286.0252 286.8738 286.6821 286.6309 286.7161 285.7557 285.3061 284.6758 284.1736 283.1682 281.8683 280.787 279.7379 279.4966 278.6537 277.5731 275.5519 274.6136 273.8536 271.8297 273.0139 273.0779 272.7529 272.6648 271.9399 271.6025 272.3308 271.7317 270.179 266.4558 265.6363 265.0861 264.2892 263.5264 263.3664 263.208 264.2896 264.4654 266.7828 268.054 268.1384 267.3221 265.888 264.3033 263.9963 264.6254 265.2848 266.76 266.4517 263.3022 259.5563 254.4486 249.9685 249.3795 248.4038 247.6775 248.5606 248.7888 246.0995 245.2366 244.5549 245.4128 248.0565 248.6712 248.6723 245.7874 241.1423 242.3091 247.665 253.4431 255.595 257.7082 259.9897 262.0314 264.5284 263.8657 262.04 260.8759 258.6501 256.7123 253.9542 251.2811 248.789 252.0092 258.4126 259.1177 258.8909 257.3933 255.6405 253.9393 251.6321 249.9422 249.4251 249.4911 248.9879 248.7392 247.8019 245.5615 239.8798 239.798 240.0956 242.0919 248.2928 250.3627 252.3974 253.1577 252.9508 253.013 251.7052 252.6964 254.0428 248.0616 243.9347 245.6093 249.5742 252.5318 253.2182 254.1964 254.9539 256.4036 262.4043 264.9734 266.6658 268.1351 269.5609 270.3052 269.7793 268.4316 267.9025 267.6156 267.3105 266.5048 264.1832 260.4912 257.0944 253.5487 249.8693 244.0908 237.9713 236.165 235.8673 235.0038 234.3877 233.4278 233.4087 233.2486 232.8999 232.9831 232.8885 232.7239 232.7027 232.886 232.8973 232.7551 232.7239 233.9947 239.0817 244.5194 237.7952 233.6161 234.1472 237.5346 236.7609 236.7977 237.5173 239.0993 242.1066 243.547 242.4244 239.1103 241.6127 242.386 238.4002 237.1869 240.9478 243.2336 240.8447 244.4289 247.3629 249.9961 252.9215 254.2874 256.9073 258.8845 260.4806 262.455 261.5347 258.5927 255.4586 249.1581 239.4262 232.0407 231.9724 232.1203 231.1679 231.6281 231.6045 231.257 231.1259 231.8002 232.7828 232.7126 232.5561 231.979 232.0188 232.6228 231.6778 230.6607 230.8835 230.8856 231.5026 232.0144 232.1335 232.995 233.9781 235.0428 237.6601 240.2067 241.3724 242.758 244.7564 246.7653 247.5062 249.3123 250.9219 252.4506 253.6455 254.6267 254.8867 254.6268 252.2389 251.0826 249.2152 248.4924 248.8871 249.1868 248.6101 247.299 245.7725 244.7289 244.139 243.1205 241.8033 240.8694 240.0176
293.8234 289.4109 286.6941 282.554 280.2914 278.1064 278.1745 280.775 283.5127 285.6795 289.0253 290.1976 291.2178 292.4453 293.6122 294.9494 295.8268 296.5381 297.0587 297.3636 296.9926 296.6239 296.2029 295.8406 295.4095 294.9634 292.3152 290.1763 290.8827 294.5106 296.0443 296.7429 296.78 295.5589 293.6984 291.4875 288.544 287.0491 290.8521 291.0668 290.971 290.5969 289.3602 289.5955 290.6209 291.1814 290.2293 284.1966 287.2755 289.1398 290.1933 290.5102 290.0581 288.7958 287.2448 285.1799 282.2868 280.1805 276.2155 271.994 270.4744 270.8975 275.5815 278.6027 282.1805 287.2594 289.0764 290.7474 291.9361 292.3407 293.0554 293.8211 294.0208 294.5026 294.8202 294.9956 295.8645 297.2122 297.1013 295.7069 294.0428 292.3009 289.987 289.3454 288.9088 288.3825 288.2645 287.1573 286.3028 285.4642 284.9731 284.9963 285.217 285.2995 284.8953 284.7262 285.2399 285.1225 284.4627 283.6117 283.1689 282.3525 280.8842 279.9518 278.6095 278.1666 277.7975 276.7892 275.5089 273.3109 271.9238 269.7603 271.1366 271.074 270.5443 270.4485 269.8185 269.7529 269.4876 268.6777 267.8516 263.8266 262.4935 261.9482 261.3787 260.9086 260.6452 260.9446 261.8175 263.0429 265.1975 265.7508 265.8531 265.6766 264.6629 263.1741 262.262 262.7197 263.2198 264.773 263.7967 261.4419 257.9449 250.4856 253.0753 255.1245 255.6713 254.1625 255.3477 255.1491 251.5792 244.4587 244.5297 244.4041 244.92 245.4061 245.192 243.1785 241.4063 242.3972 248.6459 254.4048 257.8773 259.1092 260.9216 262.8643 266.1212 266.0215 264.4362 262.993 260.9398 258.5801 256.8446 254.3004 249.657 251.7838 258.3703 259.0477 258.7953 257.7364 256.3151 254.5501 252.1616 251.2927 251.9362 251.7307 251.241 250.4428 248.1967 245.3399 240.1805 239.9517 241.1188 242.9252 248.9084 251.4195 253.6416 254.9952 255.3823 254.4303 253.448 253.4267 254.3717 249.8727 245.6268 244.1682 247.6626 251.8862 254.396 255.6398 255.6095 256.2844 261.2254 263.5706 265.2103 266.4472 267.5844 268.663 269.1232 268.8085 269.6447 268.83 267.0851 264.6283 261.0998 257.8708 253.0682 247.5783 242.7574 238.4312 240.5026 238.1358 235.5921 235.0795 234.3877 233.4278 233.4087 233.2486 232.8999 232.9831 232.8885 232.7239 232.7027 232.886 232.8973 232.7551 232.7239 233.9947 239.0817 244.5194 237.7952 233.6161 234.1472 237.5346 236.7609 236.7977 237.5173 239.0993 242.1066 243.547 242.4244 239.1103 241.6127 242.386 238.4002 237.1869 240.9478 243.2336 241.8821 244.1854 247.5419 249.8201 252.4665 253.7541 256.5681 259.1385 261.2936 264.1623 264.9828 263.6205 260.8845 255.2027 245.3387 236.0844 231.6238 231.8865 232.1171 230.5174 231.473 231.2646 231.097 231.3673 233.2387 232.3822 231.5179 230.9821 230.6816 230.6768 230.5399 230.8102 230.7665 231.0128 231.5514 231.7796 232.0709 232.7333 233.1311 235.098 238.7448 240.2366 240.5809 242.0187 243.7479 245.621 247.129 249.0434 250.5425 251.9393 253.0024 254.3505 254.8995 254.5735 252.4115 250.857 249.9385 249.2591 249.5435 250.0712 249.6043 248.4683 246.6763 245.0701 243.185 242.7784 241.7651 240.6261 239.9701
295.0876 290.7699 287.7839 283.0396 280.5275 276.9265 279.2462 282.1005 284.3228 286.4626 289.4355 290.5629 291.3236 292.5309 293.4236 294.2804 295.6056 296.3451 297.3537 297.8228 298.4702 298.256 297.8996 297.7367 296.4164 296.1993 294.0465 290.6953 290.2025 294.057 295.2843 296.6141 296.8036 295.6248 294.6946 292.2671 288.9407 290.4994 293.0898 292.9995 292.8754 292.4735 291.9895 291.7153 292.0231 292.4659 291.5976 284.3969 287.6651 289.4395 290.5539 290.6495 289.9245 287.9272 285.7709 283.8805 280.3174 277.9546 274.3044 272.2722 271.2231 271.2549 276.2888 279.6598 282.9431 287.6793 288.8359 290.5008 291.926 293.0529 293.9105 294.6185 295.3781 295.9549 296.4842 295.7829 296.0883 296.9109 295.5927 294.078 291.5466 288.8801 287.9769 286.9197 286.2408 285.9339 285.9122 285.4135 284.5181 284.1352 283.7449 283.0005 283.0154 284.0297 283.73 283.505 283.6408 283.8896 283.1935 282.6761 282.3846 281.3992 279.0212 278.5283 277.3716 276.5876 276.3886 274.619 272.6099 272.5496 271.5291 268.2062 268.7143 267.8063 267.6594 267.5671 267.0427 267.3304 266.411 264.9613 263.5902 260.5698 259.7083 259.03 258.8295 259.6049 259.6752 259.4921 259.8838 260.617 262.7177 263.0001 263.1451 263.0904 262.657 261.5519 260.3788 260.6137 261.2452 262.8041 261.8805 259.9337 256.3913 251.0135 253.2748 256.7655 259.2336 259.3644 259.2553 258.6227 254.7119 247.8956 244.3857 243.9576 243.6782 243.485 243.2926 241.599 242.3786 243.2932 249.1574 252.7946 255.9191 258.2696 260.1122 262.6595 267.3517 267.5425 266.2777 264.3745 262.5211 260.6017 259.1861 257.6341 250.9332 255.1506 257.3239 259.1961 259.1455 258.0408 256.7666 254.9288 254.0062 254.2868 254.7248 254.2767 253.3185 251.4993 249.4321 245.9303 240.5283 240.3517 241.4018 243.9923 249.5659 252.1394 254.822 257.0058 257.5612 256.4752 255.838 253.4267 254.3717 249.8727 245.6268 244.1682 247.6626 251.8862 254.396 255.6398 255.6095 256.2844 261.2254 263.5706 265.2103 266.4472 267.5844 268.663 269.1232 268.8085 269.6447 268.83 267.0851 264.6283 261.0998 257.8708 253.0682 247.5783 242.7574 238.4312 240.5026 238.1358 235.5921 235.0795 234.2906 233.6108 233.4019 233.3551 233.2685 232.9314 232.6958 232.7226 239.2892 242.837 236.4263 235.4991 236.1325 244.3457 245.0442 249.9651 238.1427 234.1138 234.0744 237.9744 238.0307 237.9901 238.977 240.9745 246.6451 250.0152 247.7744 243.7885 242.94 244.3125 243.951 238.747 241.7994 245.5582 245.4364 243.901 245.5428 249.4216 253.199 255.4293 257.9075 260.3061 262.3371 266.2702 267.2568 266.4852 263.8963 259.0791 255.2426 247.623 235.8933 231.3485 231.8705 232.0001 230.2611 231.6857 231.5693 231.1635 231.1225 231.3602 231.2687 230.7805 230.7912 230.6084 230.6812 230.8442 230.5885 231.2825 231.6217 231.7074 231.7829 232.2852 233.1453 236.0767 238.4796 239.3276 240.1187 241.6139 243.1882 245.3249 246.9462 248.0195 249.3566 250.8037 252.2357 253.4604 254.2833 254.5011 253.0324 251.7376 249.9851 249.1115 249.6366 250.853 250.4895 249.3017 247.4367 245.4273 243.4155 242.2773 241.692 240.6492 239.4977
294.5038 291.5111 288.9921 286.2292 281.8953 278.0833 280.1313 282.549 284.7292 285.8859 287.9016 289.6613 290.6218 290.8755 291.2876 292.4683 293.8777 294.9538 296.7001 297.9928 299.7944 299.179 299.475 298.9246 298.3253 297.3062 294.9749 293.2074 291.1646 293.5179 295.4981 296.3381 296.8604 296.1952 294.3951 291.5046 292.3376 294.0089 295.2816 295.3627 294.9305 294.3547 294.0233 293.8248 293.8705 293.5394 292.6931 285.1018 288.2684 289.9577 291.1519 290.8168 289.8408 287.3013 285.1512 282.638 277.2369 274.9727 272.7533 273.8251 273.0057 270.211 274.9461 278.9702 282.7783 287.5672 288.937 290.4984 291.6787 292.7818 293.7852 294.509 295.0704 295.8083 296.6741 297.1977 296.9106 295.8397 293.5435 290.5028 288.2026 287.1665 286.6702 287.1946 285.2601 282.9561 283.0871 282.7638 281.6294 281.1328 281.7646 281.7876 281.5334 282.4981 282.1505 281.733 281.894 282.0068 281.9596 281.2636 280.9275 280.3828 277.4487 276.3577 275.2513 274.2441 273.7834 271.6814 269.544 268.9233 268.3979 267.2061 266.5571 265.1087 264.3811 263.8947 263.7567 263.2087 262.5642 261.2503 259.8517 258.7814 258.2813 258.211 258.1765 257.9995 256.6786 257.267 257.4036 257.9569 258.8913 260.4801 260.858 260.8666 260.5859 259.3107 258.2455 258.7302 259.1826 260.4169 259.1931 256.226 253.3926 251.7022 252.407 255.7255 260.7602 262.116 261.7418 259.8933 256.7086 252.1837 245.0956 244.3899 243.0032 242.4688 242.2781 243.0775 243.595 247.2475 251.3008 254.1703 255.862 258.3082 260.5322 262.7732 266.8857 267.2849 267.048 264.3745 262.5211 260.6017 259.1861 257.6341 250.9332 255.1506 257.3239 259.1961 259.1455 258.0408 256.7666 254.9288 254.0062 254.2868 254.7248 254.2767 253.3185 251.4993 249.4321 245.9303 240.5283 240.3517 241.4018 243.9923 249.5659 252.1394 254.822 257.0058 257.5612 256.4752 255.838 255.1753 255.0704 252.4673 248.6319 246.5768 245.8813 248.9502 252.5775 255.2393 256.8057 257.2689 259.4427 261.8736 263.1238 264.3152 265.7263 266.4241 267.5294 268.7036 270.3092 267.6378 264.5913 261.0295 257.6596 253.5604 248.4434 242.3629 238.7643 246.3033 249.6526 240.3773 234.9229 234.4655 234.0507 233.7771 233.6834 233.7306 233.5633 233.1744 232.987 234.9091 247.946 248.1871 242.7883 242.795 245.7254 251.6994 251.6506 250.7195 243.5947 235.0823 233.9877 237.3416 240.4658 240.5978 241.1461 242.6003 247.1334 250.2142 250.6351 246.9191 244.4734 246.6541 248.4819 242.7292 241.5721 247.2763 247.9852 246.1673 247.8951 251.9329 255.0531 257.1597 259.2805 260.9745 264.8467 267.3792 267.4948 266.3734 264.7054 261.2946 258.1083 252.2281 240.9045 231.5545 231.6627 231.3786 231.6818 230.6535 230.9605 231.7665 231.8162 231.4281 230.9882 230.7762 230.7569 230.5684 230.6113 230.6625 230.8022 232.1156 231.8484 231.098 231.3894 231.8726 233.5141 236.1361 237.6495 238.668 239.9224 240.9628 241.797 244.4118 246.2842 247.8293 248.557 249.728 251.2782 252.6566 253.46 253.9018 252.7866 251.3826 249.3028 248.4176 250.2978 251.2058 250.5822 249.2312 247.369 245.8933 243.4444 242.6047 241.8494 240.8779 239.2749
293.092 290.9908 289.384 287.044 283.0815 279.7669 280.5698 282.1163 283.1775 284.4738 285.6377 287.0261 287.8755 289.772 292.2564 293.7041 294.8997 295.6909 296.8699 299.1711 300.6195 300.8757 300.8469 300.2171 299.7858 298.6453 296.8444 296.1642 294.8047 294.0668 295.5138 296.2711 297.0653 297.0699 294.5736 294.9346 296.3735 295.0209 297.2648 297.3078 296.9302 296.2102 295.9346 295.6296 295.1122 294.1916 292.5331 286.0201 288.8068 290.6364 291.6819 291.4666 289.5247 286.8261 285.2822 283.9164 276.8304 275.1804 279.4677 279.6218 274.8989 271.6307 275.1047 278.5584 281.6539 286.4371 288.088 289.4313 290.709 291.8931 292.9928 293.3383 293.6298 294.764 296.0938 297.9378 297.3147 295.899 293.2794 290.0439 289.5848 289.7747 289.6059 290.8258 290.5707 287.8623 285.6351 284.7981 281.8518 279.8416 279.5865 279.5164 279.6208 280.0912 279.4178 279.0374 279.5925 279.6085 279.641 279.5588 279.0519 278.769 275.6393 273.8758 272.3748 270.9417 271.1174 269.0821 267.3444 266.6083 265.67 264.9872 264.6232 264.1331 263.6035 263.3802 262.9123 262.278 260.1811 260.1811 262.1645 261.3083 259.616 259.7856 259.4142 257.9466 257.7555 257.0236 255.2356 254.9416 256.6155 257.8557 258.0882 257.8466 257.433 256.1863 255.494 256.0331 259.1826 260.4169 259.1931 256.226 253.3926 251.7022 252.407 255.7255 260.7602 262.116 261.7418 259.8933 256.7086 252.1837 245.0956 244.3899 243.0032 242.4688 242.2781 243.0775 243.595 247.2475 251.3008 254.1703 255.862 258.3082 260.5322 262.7732 266.8857 267.2849 267.048 265.7321 264.0064 262.1394 260.6455 255.7034 252.1386 257.5318 258.7601 259.8339 259.7067 258.9251 257.2786 256.4133 256.0712 256.844 257.2381 256.6866 255.0594 252.8961 250.6858 246.4838 240.8094 240.9576 242.2996 245.3802 250.4308 253.007 255.7283 258.3833 259.4791 259.0829 257.157 256.9093 256.5288 256.0896 254.9267 251.3869 249.1624 245.8933 248.869 252.2202 254.9642 257.5949 260.3466 261.1073 261.3779 262.4834 263.9326 264.8245 266.5003 268.6681 268.8736 263.4366 261.478 257.2035 252.4915 248.7378 244.4144 240.0056 245.6727 252.5495 253.8972 243.9361 236.0632 235.0058 234.4223 234.5404 234.5327 234.5357 234.375 234.1835 233.556 242.8952 251.8248 251.0188 248.5021 249.4034 252.5903 255.3696 255.395 249.9321 241.6501 235.2225 236.813 241.3053 242.4025 243.3304 243.924 244.8085 248.6371 250.9053 251.1384 247.605 245.9753 249.352 250.8463 246.0889 242.4473 249.6703 251.2943 250.9956 250.7732 254.4539 255.8479 257.8134 260.3772 261.9661 265.6943 266.9533 264.9527 262.2408 261.1897 258.5904 254.9252 249.8024 242.6774 232.2972 231.3961 231.5276 231.6083 231.6585 231.8806 230.7818 230.0999 230.8487 230.9864 231.4407 230.7352 230.7558 230.748 230.6142 231.0198 231.8962 231.0022 230.69 231.243 231.956 234.0196 236.2883 237.4898 238.646 239.4049 239.611 241.3681 244.9587 246.3552 246.8725 247.4688 248.9098 250.4926 251.9094 252.8668 253.4365 253.1317 251.4543 249.252 247.6722 248.0018 249.3315 249.1099 248.1371 247.1525 245.7423 243.2411 242.1568 241.7164 241.0554 240.0852
292.7894 290.2317 288.9581 286.9848 284.4294 280.7009 280.1874 282.2176 284.7622 286.654 288.5467 289.1713 290.1585 290.7545 290.562 292.7666 294.9022 296.0566 297.231 299.243 300.8034 301.7822 302.0279 301.7386 301.2157 299.998 298.8546 297.8232 297.0199 293.8994 295.6107 296.6145 297.3608 298.0128 295.035 297.1086 297.8092 297.7812 298.6325 298.7042 298.4249 297.6825 297.2663 296.7888 295.7934 294.2725 292.5301 287.7296 289.9351 291.7409 292.672 291.6966 290.313 288.5758 286.7036 284.1474 276.662 278.4981 282.864 283.4475 278.8405 274.4318 275.2988 278.1376 280.6819 286.1022 288.05 289.1862 290.4485 291.3948 291.2078 292.1186 292.8711 294.6781 295.9613 298.0563 297.9483 296.9659 295.5452 293.7679 293.15 292.745 293.2357 292.9859 291.8574 290.4921 288.9787 287.5487 285.6436 281.6632 279.0203 278.1593 278.157 277.2686 276.9328 276.6697 276.5187 276.6787 276.7852 277.2928 276.5975 275.7335 272.2663 270.6333 269.693 268.6894 268.67 269.0821 267.3444 266.6083 265.67 264.9872 264.6232 264.1331 263.6035 263.3802 262.9123 262.278 260.1811 260.1811 262.1645 261.3083 259.616 259.7856 259.4142 257.9466 257.7555 257.0236 255.2356 254.9416 256.6155 257.8557 258.0882 257.8466 257.433 256.1863 255.494 256.0331 256.8314 256.2859 254.8799 252.6855 251.324 251.68 254.6876 257.4506 261.128 263.2848 262.6901 260.8528 257.7367 253.9359 251.7886 250.957 247.0606 245.6908 245.104 242.9516 246.8993 249.8168 253.1943 255.3716 258.3244 259.3938 260.6179 262.2111 264.9495 267.1212 267.3633 266.9738 265.1959 263.659 261.7612 257.959 254.8163 260.8405 260.6943 261.0206 260.5359 259.7385 258.8364 258.2378 258.4562 259.003 258.8779 257.847 256.8772 254.6747 251.6311 246.5071 241.0801 240.8219 242.6268 245.8648 251.1406 253.5542 256.0544 258.7848 260.0666 260.3636 258.2722 257.9627 257.2726 256.918 256.6638 255.4665 252.3175 250.833 247.9311 249.2808 251.9943 255.622 259.7597 260.7673 261.101 261.3701 262.3416 264.331 265.7081 267.0369 267.6837 263.9686 260.6736 255.904 251.9031 248.5604 243.4192 240.4674 250.1774 255.0127 256.7106 248.0338 240.8003 238.493 236.4017 235.8037 235.8768 235.7144 235.6637 236.9943 243.5592 252.4196 257.3029 256.4209 254.2738 256.5948 257.5415 257.6623 256.4712 248.6683 241.0081 235.1639 239.852 242.8005 244.6079 246.1997 247.0008 248.0372 251.2413 252.7687 252.3707 249.9446 249.9108 252.2089 252.2973 246.7935 243.254 251.9212 254.6662 254.7266 254.3279 255.0246 256.4511 258.3204 260.0848 261.6742 265.5592 266.4515 265.3337 260.214 256.6949 253.5003 249.5054 245.3319 241.2759 233.6972 231.0247 230.9466 231.1147 231.1541 231.548 231.535 231.4623 231.2117 231.1273 230.743 230.1945 231.4743 231.6464 231.315 230.8645 230.5413 230.4251 230.5515 232.6643 233.7817 234.9306 235.6355 236.6195 237.2199 237.9292 239.6546 241.5214 244.7432 245.4706 246.2438 247.7134 248.9333 250.1418 251.3602 252.3183 253.1089 252.9682 251.5425 250.067 247.6739 246.683 246.9395 247.3691 247.228 246.3949 243.9835 242.9107 242.1313 241.3125 240.969 240.5696
289.0127 288.4477 286.6619 285.0998 283.0724 281.9904 279.616 281.3775 284.9272 287.2794 290.5295 291.5318 292.1553 292.4426 292.8906 292.7961 294.2574 295.5968 296.7466 299.5879 300.8352 301.5974 302.1902 302.5321 302.4597 301.3807 300.1527 299.7084 298.2907 293.6331 295.6442 297.755 298.6104 298.2181 297.3506 297.9926 298.5618 299.4833 299.4254 299.692 299.7496 298.8329 298.0493 296.8925 295.602 294.0071 291.6427 288.5746 290.577 292.4282 293.3998 292.4281 291.1701 289.5965 287.5619 284.4882 279.4491 280.6573 284.2813 286.0211 284.0667 277.8693 273.4978 277.8019 280.2277 285.423 287.4613 288.9545 289.7042 289.5957 290.1499 292.0367 293.4277 294.6299 296.7018 297.9681 298.6168 298.0869 295.5452 293.7679 293.15 292.745 293.2357 292.9859 291.8574 290.4921 288.9787 287.5487 285.6436 281.6632 279.0203 278.1593 278.157 277.2686 276.9328 276.6697 276.5187 276.6787 276.7852 277.2928 276.5975 275.7335 272.2663 270.6333 269.693 268.6894 268.67 267.0152 267.1021 267.8536 269.1616 268.1176 265.1736 265.2784 266.0427 267.8026 268.4226 268.4307 268.5604 266.3708 265.8748 265.2177 264.2682 263.8907 263.7942 262.8159 262.1729 262.6154 261.5498 258.3748 254.9416 255.6356 255.6059 255.3002 254.8721 254.4374 254.2905 253.9512 253.3891 251.8348 251.79 252.1556 254.7855 257.8018 258.7667 260.915 261.8775 264.0174 264.0483 261.565 258.2497 254.9398 255.0238 254.7258 251.5774 248.7643 247.9693 244.2937 247.4963 250.9172 253.6006 255.9588 257.4563 258.6496 260.0296 261.5856 264.8774 266.5419 268.0605 267.8493 266.5754 264.6982 264.2991 261.0168 258.0667 261.7651 261.7882 261.9665 261.682 260.7884 260.6615 259.8243 260.1749 259.9874 260.3641 258.0685 256.6306 255.2893 252.5013 248.205 241.7505 241.3595 243.1786 246.0998 251.3273 253.3995 255.7327 257.6063 259.0363 259.6088 259.7119 259.0902 258.5509 258.0491 257.616 256.7997 253.9127 253.9382 250.5094 248.3282 249.6182 252.1669 256.5306 258.1631 259.3763 260.708 261.2288 262.6237 263.8728 265.5372 266.2742 265.1134 260.9787 254.5039 249.442 247.0844 245.2267 243.3963 254.4986 256.9484 258.9435 252.5004 246.5196 244.164 239.8984 239.0575 238.3667 237.2512 237.3544 242.902 253.7141 258.1904 261.211 261.3435 260.5433 260.4084 259.0527 257.7523 255.4987 246.1849 239.2874 235.1823 243.0073 245.0371 246.7699 248.4389 249.7098 250.8431 254.1478 255.8988 256.1118 253.8034 253.7395 254.0712 251.0168 243.6895 246.1333 253.4025 255.8445 256.7626 256.486 256.4847 257.0451 257.8438 259.0537 261.5027 264.6646 266.0689 266.6727 265.1002 261.4974 254.6979 249.5234 248.7527 245.5145 238.28 230.9876 231.0673 230.9159 230.9745 231.0042 231.3141 231.2716 230.9875 230.703 230.7203 231.2437 231.2792 231.0921 230.5186 229.7871 231.2907 230.8577 230.6145 232.1856 233.5291 233.877 234.8398 235.5705 236.664 238.1187 239.2861 240.8231 243.2164 244.7731 246.0092 247.3846 248.6501 249.8349 250.6533 251.2937 252.5146 252.882 251.8867 250.7062 248.2708 246.7957 245.859 245.7302 245.7531 245.1463 243.4801 243.1071 242.1886 241.5237 240.7081 240.2257
290.8201 286.8117 286.0796 285.8531 285.899 283.4507 281.2496 281.37 283.4992 285.7217 290.5501 292.1297 292.8832 293.6384 294.1288 294.4857 294.7139 295.8068 296.7462 299.6948 300.9217 301.5591 302.1512 302.7372 303.0349 302.553 301.689 300.6382 299.0546 294.5359 297.041 298.853 299.7198 299.9637 299.1336 298.6548 299.495 300.3777 300.7549 300.6994 300.4597 299.5195 298.5637 297.0259 294.8997 291.5741 288.4235 288.8294 290.2964 292.4282 293.3998 292.4281 291.1701 289.5965 287.5619 284.4882 279.4491 280.6573 284.2813 286.0211 284.0667 277.8693 273.4978 277.8019 280.2277 285.423 287.4613 288.9545 289.7042 289.5957 290.1499 292.0367 293.4277 294.6299 296.7018 297.9681 298.6168 298.0869 297.6681 295.9112 295.0232 294.582 295.29 294.8141 293.5922 291.9596 290.4851 289.6398 288.2036 285.4739 282.456 279.4965 279.3667 280.5761 280.4088 276.6916 273.9135 273.7156 273.1876 272.7397 272.5768 272.3602 269.7434 269.7511 268.7643 268.3719 268.2141 268.4211 269.128 271.6778 272.8125 270.5439 268.7852 267.4873 269.201 270.3645 271.0623 271.3615 270.5092 269.7621 267.2962 267.9706 268.0297 268.0522 267.9535 267.0603 265.8804 264.5793 264.6935 263.1293 257.621 255.4474 254.2944 252.9583 253.6729 253.635 253.5492 253.3723 253.2429 251.8269 253.062 253.8445 256.7985 259.8444 262.0527 262.9164 264.2516 264.9651 264.406 261.2376 258.7892 257.9977 257.4818 256.7472 254.5337 252.1411 249.5088 243.6353 246.8546 250.9082 253.3421 255.0823 256.9064 258.2801 260.3003 261.854 265.3484 266.9109 268.7658 268.9044 268.0332 266.378 264.9716 263.2667 260.2326 263.1557 263.2567 263.3573 262.7051 262.2138 261.5536 260.889 260.788 260.6186 260.1755 257.4902 256.0873 254.4745 252.1259 248.8221 242.241 241.7025 243.6794 245.4576 251.3075 252.6328 254.6672 256.1345 257.3224 258.5735 259.458 259.8776 260.0087 259.3328 258.6483 255.9532 258.2342 257.3321 255.1401 251.3715 248.7672 249.7809 254.1473 256.187 257.3067 258.4284 260.5846 261.6332 262.873 264.012 264.9846 265.3175 262.7212 258.8369 254.4323 251.471 246.5944 245.848 256.2816 258.7841 259.3031 253.4585 253.4073 251.9103 247.7469 243.8462 239.7895 239.0163 239.6208 245.7138 258.059 261.2088 262.1886 261.9454 260.928 259.1702 257.14 255.4167 253.1687 243.0848 235.8938 239.7289 244.9469 247.0146 249.0098 250.8927 252.5408 253.9147 257.3496 259.3651 260.2977 258.5985 255.6095 255.5166 250.6758 246.1786 249.0787 254.753 257.5024 258.9953 259.4005 258.5511 257.7172 258.1036 258.7908 260.8925 264.0664 265.9593 266.6994 266.9657 264.5069 259.8972 256.8748 255.4655 250.5328 243.8658 236.159 236.0493 233.3864 232.3008 230.8753 230.9877 231.0806 231.0069 230.9832 230.6351 230.8486 230.8386 230.5517 231.0476 231.4155 230.3604 230.7269 230.8689 230.8648 231.5932 232.0063 233.0022 234.3491 235.7943 236.5083 238.471 240.144 243.5267 244.5737 245.6625 246.8503 247.8867 248.852 249.4679 250.2048 251.227 252.6929 252.0357 250.6105 248.7851 246.9622 245.2893 244.4349 244.3238 244.0307 242.8478 242.2085 241.4487 240.4572 239.9027 239.6986
293.468 289.9046 290.1957 289.2858 288.2188 284.869 282.4608 281.0906 282.4213 284.6566 289.7601 291.7232 292.8534 293.9281 294.4781 294.8717 295.3036 295.939 296.9357 299.4944 300.5158 301.5591 302.1512 302.7372 303.0349 302.553 301.689 300.6382 299.0546 294.5359 297.041 298.853 299.7198 299.9637 299.1336 298.6548 299.495 300.3777 300.7549 300.6994 300.4597 299.5195 298.5637 297.0259 294.8997 291.5741 288.4235 288.8294 290.2964 292.9109 293.6962 293.0789 291.6577 289.8808 287.8755 285.9539 281.5605 284.4027 285.9018 286.9761 286.5951 281.1541 274.7749 276.0288 278.4398 283.2666 285.2229 286.4319 287.0562 288.054 290.4276 292.1638 293.0192 293.3846 296.0474 297.7581 298.9276 299.0025 298.6758 296.9753 296.4022 296.6021 296.7434 296.622 294.7901 293.3927 292.4221 291.5317 289.7241 287.8264 286.6063 284.3278 283.6155 284.3255 284.1909 282.3402 278.561 276.1526 273.9821 272.7791 271.6509 270.4945 270.9578 271.9753 274.2182 272.9981 273.3016 273.3958 274.5655 274.9106 275.3041 271.9503 271.098 269.7682 269.8472 272.2664 272.9913 273.5461 273.1208 271.8573 269.7191 270.7211 270.7716 270.6539 270.3163 269.1022 267.5068 266.6704 266.271 263.7557 261.2617 259.6037 257.6159 255.8986 254.7212 254.1386 253.8979 254.4079 253.0822 253.8472 254.6938 256.3189 259.113 261.4118 263.8092 265.0811 266.254 266.6349 265.5687 263.2357 261.2407 260.1007 258.5242 256.8708 255.2867 253.5941 250.3825 245.562 246.9519 251.5751 254.0069 255.0629 256.8474 258.0196 260.1878 261.6159 265.3333 267.388 269.0443 269.9783 268.6872 267.2878 266.3783 264.8892 262.1662 264.6622 264.5627 264.563 263.8793 262.8523 262.3455 261.1664 260.2758 259.7546 258.9321 256.3958 254.9768 253.6095 251.4716 248.6876 243.1559 241.6837 242.7965 245.7921 251.8227 253.4944 255.0654 256.7529 258.289 259.2296 259.9983 260.6975 260.8271 261.0722 260.3076 259.2725 259.6969 259.8474 259.4145 256.4666 252.132 250.3766 251.5329 253.4275 255.3183 257.6818 259.024 261.283 262.5474 263.3631 264.5541 265.3749 263.2254 260.0384 255.951 251.4154 243.1803 253.3508 258.4193 260.9843 259.9007 256.6515 258.3777 255.482 251.5087 244.0305 241.233 240.9031 243.4448 249.4943 260.1888 261.8516 261.5895 259.9015 258.0353 256.1294 254.0279 252.0097 249.8575 237.3464 237.151 240.371 245.1425 248.0898 250.9707 253.5854 255.5177 256.7545 260.7674 262.5374 264.038 262.4294 258.2366 255.6472 253.4673 248.7665 250.9919 256.4271 259.0692 261.1459 261.5973 261.7629 260.0001 259.1168 259.5003 260.8978 263.9582 266.0613 266.8987 267.8053 267.0275 264.5601 262.0623 258.9609 254.3771 251.4872 245.6863 244.0953 243.2864 239.7609 232.0926 231.3692 231.084 230.9461 230.8384 230.6046 230.75 231.0576 232.8045 235.6803 237.1196 235.1402 231.249 230.473 230.157 230.4491 230.9883 231.2989 232.8312 234.0096 235.4128 237.4859 239.2066 242.2542 243.2114 244.3721 245.2597 246.346 247.5193 248.0529 249.3022 250.2308 251.3787 251.4374 250.4702 249.1987 247.2323 245.4746 244.1306 243.5934 243.3537 242.421 241.4031 240.444 239.2115 238.6679 238.5092
293.468 289.9046 290.1957 289.2858 288.2188 284.869 282.4608 281.0906 282.4213 284.6566 289.7601 291.7232 292.8534 293.9281 294.4781 294.8717 295.3036 295.939 296.9357 299.4944 300.5158 301.4189 301.8428 302.4508 302.8669 303.1125 302.7849 301.213 295.1729 295.9152 297.985 300.032 300.7286 300.9319 300.6165 299.748 300.007 301.2073 302.0468 301.7855 300.7777 299.7632 298.0999 295.3446 292.4601 290.0314 292.6087 290.3897 291.3062 293.2501 293.9576 292.9341 290.485 288.2651 287.2978 285.5796 282.3777 284.4368 287.7949 288.4156 288.1849 283.7649 278.115 274.8598 277.0132 283.3121 284.3572 285.1333 286.4449 288.4062 289.7339 290.359 291.5094 292.7636 295.472 297.4369 298.7438 299.6581 299.6685 297.8156 298.0648 298.6742 298.6537 298.3957 296.5111 295.3415 294.393 293.2385 291.5348 290.2865 288.7912 288.0003 287.2458 285.8925 285.3149 283.6249 281.1696 279.1982 277.1327 274.2104 272.1516 271.8567 277.9363 279.7687 280.4663 279.3344 277.5447 277.3922 277.2472 277.0682 276.5237 273.5821 272.1317 270.6 272.1432 273.8127 274.6863 275.8627 274.98 274.2597 271.2829 273.0753 273.2499 273.1067 272.4486 270.8297 269.3338 268.6783 268.1794 265.5254 263.1646 261.487 260.1425 258.9269 256.9644 256.0659 255.3085 254.2957 252.9633 255.1761 257.5932 258.8781 260.8378 263.5079 264.8888 266.9324 268.0953 268.492 267.4845 265.5137 263.6187 261.3799 259.3659 258.4077 257.2895 255.1451 252.2617 245.4738 247.7568 249.9913 252.9684 254.4213 256.0388 257.9662 260.239 262.0419 265.7159 268.1075 269.2264 270.2128 268.9872 268.5597 267.4653 265.65 263.4422 266.185 265.3907 265.4526 264.1947 263.5908 262.4101 260.5625 259.4786 259.1685 257.5266 255.0345 253.6006 252.422 250.7039 248.2134 242.8291 241.771 242.324 245.384 252.1646 254.0428 255.5562 256.7877 258.2959 259.5965 260.8069 261.8704 261.2853 262.6608 261.9488 260.6566 260.7951 261.243 261.8197 261.0278 257.9388 254.4949 251.3906 252.3141 253.8746 255.9993 258.725 261.2331 263.1646 264.1441 264.4084 264.8849 263.0771 259.0579 248.0525 246.9219 249.4019 257.2289 260.7999 262.8495 262.2724 261.1169 259.9675 256.7722 251.8431 240.8893 245.6954 246.4246 248.7087 254.9443 260.6951 260.3379 258.5352 256.6954 254.2737 251.6071 249.2853 246.6777 244.1302 238.406 237.7802 240.3392 241.3172 246.0839 250.7825 254.5343 257.2907 259.1448 263.3642 265.6773 267.6448 264.8061 261.1663 258.1272 256.6501 252.8596 253.8337 257.3581 259.7779 261.6081 262.8083 263.0008 262.6243 261.842 261.2346 261.5092 263.9812 265.8276 267.0615 267.7719 267.9053 267.1258 264.8982 261.3416 258.661 255.9676 252.4693 249.8597 248.4072 242.775 234.4445 232.0466 231.9156 231.4975 231.0004 230.6494 230.9938 232.6254 236.1292 239.9376 242.1083 241.9513 240.9996 237.2542 235.0548 231.7781 230.917 229.7192 231.217 231.1281 233.4651 236.1188 237.3387 240.5879 241.7289 242.8523 243.6666 244.705 245.5982 246.5894 247.2568 248.1098 249.6475 250.0954 250.1414 249.1772 247.4825 245.6572 244.2351 243.3234 242.9131 242.421 241.4031 240.444 239.2115 238.6679 238.5092
295.4365 292.9889 291.8912 291.4597 290.2552 287.1848 283.8151 281.9658 282.2266 283.5847 288.7082 290.5035 292.3828 292.6236 293.1088 293.478 294.2408 295.3733 296.308 298.3979 299.1896 300.0359 301.2919 301.9855 302.5281 303.0975 303.1312 301.9428 297.0901 296.6218 298.8221 300.5168 300.9952 302.0544 301.9978 301.6274 300.741 301.8319 303.3793 302.499 301.3833 299.7274 296.174 292.7309 291.1156 294.529 294.8922 291.1896 291.9526 294.1441 294.3045 292.7068 290.2023 290.1826 289.0157 285.1841 283.154 285.7345 289.2207 290.5966 289.4383 286.7268 281.4195 277.9378 276.2984 281.5285 283.7832 284.0902 284.5615 285.9063 287.1575 288.4176 290.0762 292.3994 296.1903 298.3406 299.3984 299.9276 300.2589 299.6789 299.7283 300.3847 300.3535 300.0539 298.4884 297.5616 296.0574 294.382 293.3277 292.4795 290.8875 289.6984 288.4791 286.7538 285.7751 284.3162 282.2995 280.1947 276.9793 273.3894 273.017 276.7094 281.9808 283.0788 284.0328 283.3756 281.1866 280.2221 279.8474 279.3051 278.3534 274.8619 273.4308 272.1102 274.2691 275.3587 275.8758 276.6444 276.3445 275.9606 273.8633 275.2572 275.6297 275.0658 273.9014 272.8091 270.9101 270.8796 269.5968 266.5091 263.9888 262.7451 261.3675 259.9204 258.6622 256.7762 254.5921 254.0782 253.8848 257.4493 258.6733 260.3625 262.2817 264.6422 267.2536 268.3462 269.8543 270.3038 268.1499 265.8301 264.14 262.6189 260.7401 258.8158 257.734 255.4521 252.9879 247.4633 249.9012 253.1961 253.4846 254.4918 256.4235 258.2686 260.2469 262.157 266.004 267.6489 269.0757 270.0572 269.9308 268.6635 267.8155 265.8481 265.7024 267.0575 266.4775 265.4602 263.977 263.0259 262.1249 260.289 259.093 258.4002 254.3614 253.1671 252.1273 250.7069 248.6705 245.4977 242.3132 242.2138 242.7518 244.249 251.52 253.6204 255.1342 256.2249 257.6755 258.9092 260.2117 261.2326 261.4987 263.0389 263.0518 262.3419 261.7517 262.529 263.238 263.4064 262.745 261.1592 254.1274 253.034 253.8473 256.0442 260.1353 261.7776 263.8083 265.0935 265.6935 265.339 264.4442 262.5574 258.951 252.8157 248.1574 260.2667 262.3615 264.4019 264.0088 263.751 260.2247 255.4021 247.1497 246.0693 252.3524 251.454 251.4782 256.3342 260.06 257.8946 253.4915 251.7224 248.1774 244.8346 241.3588 239.9647 240.4724 242.1905 240.1086 242.1464 245.187 241.7473 248.0152 253.3376 257.109 260.5026 265.8965 268.2738 268.6978 265.1941 262.3498 261.1215 259.4898 257.6129 255.7299 258.8606 261.9972 263.2001 264.7707 265.6853 265.3073 264.8828 263.9568 263.4154 263.9709 266.0003 267.443 268.027 268.4748 267.8455 266.6961 264.6365 262.6224 260.0394 256.1809 251.7083 246.8099 241.2326 234.6814 235.6077 237.4726 234.9857 231.0004 230.6494 230.9938 232.6254 236.1292 239.9376 242.1083 241.9513 240.9996 237.2542 235.0548 231.7781 230.917 229.7192 231.217 231.1281 233.4651 236.1188 237.3387 240.5879 241.7289 242.8523 243.6666 244.705 245.5982 246.5894 247.2568 248.1098 249.6475 250.0954 250.1414 249.1772 247.4825 245.6572 244.2351 243.3234 242.9131 242.2292 241.0495 240.0588 238.7918 237.6951 237.2761
297.6342 295.5724 294.3321 292.7812 291.4452 289.3686 287.2288 283.7107 281.355 283.4619 285.9269 287.9924 289.6356 291.6982 293.0457 294.4275 296.0526 297.4334 298.6781 300.6217 300.9226 300.6299 301.3079 302.3503 302.7624 303.3193 303.4565 302.331 298.9976 299.9494 299.5813 301.5472 302.644 303.304 303.4088 303.1217 302.4718 301.7589 303.6278 303.455 301.9109 299.7946 294.3847 292.2763 294.6984 297.0683 296.7313 291.9643 293.4826 294.9241 294.3928 292.9536 293.3972 292.4718 290.7903 286.1082 284.1022 285.8083 289.0787 291.2537 290.6399 288.6798 284.0389 280.4789 279.4977 278.2704 280.4218 280.9619 281.6785 282.9359 285.2061 289.3933 290.7686 292.1247 296.04 297.8578 299.4812 300.5288 300.8602 301.2211 301.5092 301.928 301.9356 301.0747 300.2007 298.9403 297.3761 295.8048 294.7885 293.6301 292.6508 291.1504 289.6441 287.2012 285.7235 284.0364 282.2954 279.2868 275.921 273.6662 275.858 279.2876 283.4932 285.0422 286.1464 285.7054 283.8237 282.2057 281.1075 279.9616 278.9653 276.4289 274.9006 273.8615 275.336 276.701 277.4908 277.9692 277.8315 277.5688 275.8142 276.9795 277.4402 277.1811 276.4035 274.7645 273.0815 272.9304 271.2042 267.4258 265.7114 264.5408 262.4641 260.4117 258.1136 255.7884 254.8577 253.5467 257.1003 259.6735 259.4894 262.0823 264.7149 267.1163 268.5127 269.4571 270.8145 271.7086 268.7797 267.6435 265.8529 263.2486 261.6374 260.357 258.0447 255.8483 252.9896 247.1001 249.1174 253.2806 254.8014 255.6991 257.1204 258.8645 261.053 263.0472 266.7533 268.1428 269.4665 270.1758 270.363 268.883 268.5228 268.0617 267.8663 267.7924 267.1004 265.4385 263.6765 261.7781 260.9391 260.048 258.9973 257.5625 253.7592 252.0404 250.3737 247.6819 245.2637 243.2384 242.2988 242.8251 243.1412 243.7551 249.5569 252.1152 253.6575 255.007 256.1805 257.6023 258.7277 259.5729 260.972 262.1946 263.101 263.5759 263.141 263.1305 264.0122 265.129 265.7587 265.2624 257.6109 255.5113 257.0804 259.7579 261.8485 263.3965 265.2963 266.6246 267.0768 266.1408 266.0941 265.0161 261.0083 251.6788 252.5441 262.394 264.262 265.845 265.1796 263.8125 259.6082 254.7731 245.347 253.8542 256.6046 256.6744 256.6176 258.8524 257.6925 252.9458 247.8293 241.4808 241.3979 241.3071 245.5305 247.5474 250.4298 250.2612 242.2985 239.8607 245.958 247.8595 244.5859 250.7927 256.2747 260.871 267.078 268.2738 268.6978 265.1941 262.3498 261.1215 259.4898 257.6129 255.7299 258.8606 261.9972 263.2001 264.7707 265.6853 265.3073 264.8828 263.9568 263.4154 263.9709 266.0003 267.443 268.027 268.4748 267.8455 266.6961 264.6365 262.6224 260.0394 256.1809 251.7083 246.8099 241.2326 234.6814 235.6077 237.4726 234.9857 233.3081 230.8598 235.0413 236.9502 239.6368 242.3947 244.9121 244.9166 243.4103 240.5006 235.3267 232.4155 231.4555 231.3011 231.0338 229.8935 230.0636 232.2728 234.5359 238.7948 239.6846 240.2798 241.4811 242.5665 243.202 244.21 245.2457 246.1668 247.6513 248.4307 248.9392 248.5436 247.6863 246.1348 244.4031 243.2831 242.804 241.9219 241.0732 239.9316 238.8127 237.5616 236.9994
298.9106 296.9643 295.8615 294.9294 292.9322 291.9081 290.2753 287.6391 283.9433 283.1604 286.0837 288.7375 290.2701 292.1133 293.8194 295.9341 297.2874 298.5551 299.5817 302.1459 302.4534 302.4617 302.3494 302.4803 302.9324 303.3044 303.5879 302.3345 300.8508 301.9273 302.3284 302.4236 303.4179 304.1137 304.4054 304.226 303.5283 302.8621 304.3323 304.1786 302.6812 300.7871 295.8456 295.8093 297.6434 298.4821 298.0182 294.2709 295.6589 295.9828 294.8087 295.0923 295.1802 293.8972 292.2275 289.1165 285.2987 285.49 288.9858 291.2229 292.0425 291.2468 288.4464 285.2522 282.9571 278.0942 280.673 281.897 284.1136 284.2323 288.5445 291.0001 292.8721 293.979 296.5965 297.7738 299.7888 300.9495 301.6435 301.8631 303 303.4641 303.7668 302.505 300.774 299.5609 298.2361 296.6135 295.5615 294.5409 292.8009 291.2521 290.1695 287.0368 285.5201 284.2572 280.7353 277.953 273.3609 275.4593 277.9236 280.0899 283.7698 285.6572 287.3227 287.0353 285.4914 284.328 282.0985 281.0365 279.3183 277.1957 275.6878 276.4714 277.5729 278.334 278.911 279.3062 279.4712 279.2419 277.6567 278.908 279.2724 279.2782 278.361 276.8507 275.4586 274.1984 272.22 268.5414 267.3582 265.342 262.6324 260.7889 258.9905 257.2263 254.9612 255.7438 260.0822 262.4631 260.9383 262.9611 266.8736 269.4648 269.8292 270.8099 271.7261 272.3788 270.6792 268.9445 267.6177 265.8438 263.9315 261.6095 259.18 256.5631 254.0259 247.7441 249.7354 251.9992 252.9817 254.0772 257.0011 258.9378 261.2525 262.6528 266.4242 268.1635 269.7539 270.6266 270.9826 269.8278 269.0262 268.3413 268.646 268.2195 267.1677 265.253 263.3582 261.4785 259.5093 259.1478 258.32 256.8487 253.7054 251.638 249.6239 245.3881 243.9102 242.856 243.317 245.3653 246.0671 244.144 245.7371 248.6056 251.0806 252.5084 254.6619 256.1335 257.1562 258.4317 259.8734 261.9107 263.1283 263.8681 264.3274 264.3194 264.7953 266.1199 267.5778 268.3184 263.2422 258.5435 258.2969 260.3683 263.5556 265.3695 266.9464 267.9961 268.533 267.2347 266.8303 264.6956 258.4698 251.6788 252.5441 262.394 264.262 265.845 265.1796 263.8125 259.6082 254.7731 245.347 253.8542 256.6046 256.6744 256.6176 260.1799 257.6925 252.9458 247.8293 241.4808 241.3979 241.3071 245.5305 247.5474 250.4298 250.2612 242.2985 239.8607 245.958 247.8595 244.5859 250.7927 256.2747 260.871 267.078 269.8173 269.2809 265.9784 264.3253 263.3145 262.2314 260.1571 258.212 260.7961 263.3668 265.6246 267.0017 268.3676 268.915 268.762 268.3988 266.8625 264.8234 266.6234 267.8929 268.55 268.8067 268.511 267.7624 266.7751 265.6783 261.8536 256.6409 250.9212 244.8301 237.4172 238.2953 244.6298 245.4098 244.3862 242.5336 240.315 241.668 242.1068 241.9052 244.1723 246.0476 245.4602 243.3715 240.5407 235.3976 233.1994 231.5509 231.1786 231.2666 231.0568 231.2757 229.7321 230.6555 236.641 237.2085 238.4657 239.4663 240.3658 241.1815 242.0818 243.1424 244.1284 246.0143 246.8722 247.3741 247.4001 246.9517 246.3667 244.4219 243.0649 242.6766 242.1232 241.0754 239.8766 238.5677 237.4748 236.9546
299.3074 297.642 296.8882 295.9506 294.5091 293.4721 291.9148 289.0825 285.0168 283.601 284.5092 287.3697 290.1855 292.2442 294.2495 295.6846 297.6923 299.567 301.0878 303.0767 303.3621 303.3436 302.9316 302.7551 302.9174 303.4182 303.7643 303.5121 302.1979 303.2983 303.8464 303.86 304.0507 304.7368 305.2771 305.1003 304.6735 304.2622 304.8326 305.3452 304.1276 302.7275 299.4749 298.0182 299.3052 299.1888 298.1527 296.7174 297.0933 296.6954 296.8113 296.706 296.2366 295.0971 293.1228 290.6656 286.0667 286.9656 289.6532 292.0704 293.2148 293.6586 291.9919 289.2353 287.0764 279.0142 282.1551 285.5388 288.5858 289.883 291.0819 292.3738 293.7028 295.1772 297.7308 298.43 300.098 301.4161 302.0846 302.2868 303.5738 304.594 304.8148 303.0136 301.4695 299.5072 298.4147 296.8226 295.8767 294.3809 292.4632 290.545 289.2963 286.0461 284.5945 282.2789 278.6346 275.5457 274.7392 277.5099 277.8079 280.3856 284.8224 286.2737 287.55 287.8841 286.1484 284.4914 283.0923 281.6258 280.0396 277.4954 277.9386 279.0461 279.1364 279.5067 280.4095 280.5379 280.701 280.9925 279.8181 280.3322 280.8439 280.5575 279.6178 277.7157 276.5078 274.5184 272.3755 268.2208 266.877 264.8371 263.6622 261.9138 259.2242 256.0395 254.9416 257.6981 265.5901 264.2377 262.5215 265.5428 268.7119 270.2602 271.7605 272.6677 273.3582 273.6241 272.0349 271.1324 269.4155 267.6689 265.146 262.7051 260.3419 257.9793 254.929 248.2104 249.3215 249.3806 250.9758 253.4781 256.1852 258.1728 260.3068 262.5059 266.5712 268.0211 270.0844 271.1866 271.5786 270.9513 269.7372 269.499 269.7721 268.1552 266.9584 265.1165 263.2943 261.3234 259.2937 257.6558 256.8056 255.785 253.2766 251.5344 248.7973 245.0429 243.5437 242.6502 246.959 251.1065 252.5398 244.144 245.7371 248.6056 251.0806 252.5084 254.6619 256.1335 257.1562 258.4317 259.8734 261.9107 263.1283 263.8681 264.3274 264.3194 264.7953 266.1199 267.5778 268.3184 263.2422 258.5435 258.2969 260.3683 263.5556 265.3695 266.9464 267.9961 268.533 267.2347 266.8303 264.6956 258.4698 247.6094 257.8772 264.1783 265.9088 266.9959 266.1675 260.4855 256.6319 257.4623 251.7835 253.4111 258.2747 259.6481 258.788 259.7435 254.2258 247.9644 242.6012 246.2487 250.0537 253.0293 254.6313 255.5809 256.029 254.221 244.6605 241.7337 245.641 249.7247 248.3407 246.5781 253.3468 258.4505 266.489 269.5129 269.8229 268.0059 266.1797 265.3622 264.9929 263.0302 260.7668 261.4215 264.3598 266.3721 268.1202 269.3977 269.8175 269.9403 269.6002 269.0044 266.3001 267.6845 268.496 269.015 268.5889 267.7629 267.104 266.3954 265.2974 261.6958 255.8519 249.1976 242.0566 237.7654 245.7551 247.9931 250.7391 250.3795 249.1116 246.5763 246.4506 247.3164 246.5843 245.9906 247.0102 245.6683 243.9642 242.7372 236.5757 232.8595 231.0073 230.645 230.9799 231.3058 231.0568 231.3199 229.6388 232.7308 235.0642 236.5539 237.5303 238.4448 239.3652 240.4414 241.2193 242.4614 244.3201 245.0779 245.573 246.1781 246.2369 245.7419 244.129 242.9093 242.3767 241.9928 240.7156 240.2963 238.7378 237.3788 236.7804
300.5317 298.4184 297.4716 296.5803 295.1313 294.1129 292.4986 290.9499 288.4793 284.8426 284.2929 286.4554 289.5737 291.5625 293.8818 295.2324 297.3524 299.6556 301.056 303.3722 304.0912 304.3216 303.9375 303.5132 303.786 304.166 304.2885 304.0579 303.691 304.4595 305.0894 305.4569 305.3258 305.5287 305.8265 306.002 305.8807 305.1912 306.0143 305.9427 305.5771 304.3202 302.6705 300.9714 300.3413 299.9077 298.349 297.7639 297.8921 297.4623 297.6653 297.5122 297.4342 296.1063 294.3844 292.7008 286.7643 287.9025 290.6533 292.5964 294.4924 295.4779 294.1292 291.7542 289.5821 282.9113 279.8168 284.2344 287.8405 290.2942 291.2404 292.4056 293.9223 295.5611 298.0419 298.9503 299.8125 300.8285 301.9679 302.7484 303.8518 304.8791 306.0126 303.8 301.5492 299.739 297.7585 296.0796 294.9199 293.2831 291.7666 289.9018 287.8878 284.2669 282.6077 281.0612 278.5139 274.6205 276.3636 279.3636 280.9059 281.2028 285.0516 286.6603 287.7693 287.7758 286.9203 284.9554 283.8057 282.1642 281.0027 278.9885 280.2 281.0156 281.0109 281.3429 281.7885 281.6607 281.9071 282.1431 281.8414 281.8706 281.9038 281.6415 280.28 278.4038 276.1374 274.1023 272.0976 268.749 267.9354 265.8734 263.7412 261.8326 259.7782 255.9903 255.4836 261.1165 267.1291 266.4152 264.8 266.9187 269.4688 271.4458 273.3611 274.5547 274.959 275.1177 273.9513 272.446 270.9559 268.8086 265.5031 262.7382 260.0562 257.8974 255.4683 247.4728 252.0991 252.8021 250.6364 253.4781 256.1852 258.1728 260.3068 262.5059 266.5712 268.0211 270.0844 271.1866 271.5786 270.9513 269.7372 269.499 269.7721 268.1552 266.9584 265.1165 263.2943 261.3234 259.2937 257.6558 256.8056 255.785 253.2766 251.5344 248.7973 245.0429 243.5437 242.6502 246.959 251.1065 252.5398 251.0377 244.9515 247.245 249.7645 251.8704 253.5433 255.7307 257.3243 258.469 259.6937 261.6598 262.7373 263.7446 265.0212 265.8208 266.2047 266.6449 267.6659 269.0242 266.8802 261.8037 260.2809 261.226 264.4715 266.2671 267.6173 269.0569 269.961 269.047 267.2519 263.0604 252.2963 261.7419 260.0445 264.0471 267.5981 268.7343 267.485 262.2151 264.343 262.6896 258.6418 254.9061 260.5846 262.0469 262.4334 259.3597 254.2355 246.4804 246.6439 252.2707 253.2015 254.8075 256.5655 258.5739 259.3754 255.9901 251.0898 244.6458 244.4771 250.1828 252.3313 248.2574 249.8704 255.3928 265.604 268.9538 270.1438 269.2303 268.5424 267.9448 267.5412 266.0224 263.6921 262.7435 264.6607 266.401 267.8013 268.5514 269.0959 269.5317 269.476 269.2215 267.2616 268.2913 269.5077 269.4294 268.2097 266.6118 265.6662 265.1035 263.4184 259.5281 254.091 245.9088 238.4905 244.1584 248.6509 251.943 254.3554 254.1395 252.6853 249.8001 249.9425 250.0242 248.6558 248.2734 248.3797 246.7705 246.6084 246.6399 242.3659 234.4253 230.7523 230.5647 230.5213 230.4898 230.8798 231.0878 231.2243 231.1606 230.5765 232.6811 234.1547 235.3783 236.9909 238.3657 239.592 240.5459 242.675 243.3956 244.0527 244.7442 245.3154 245.1268 244.2487 242.9979 242.0809 241.5814 240.9057 240.259 239.0956 237.7574 237.1915
300.716 298.798 297.9436 296.246 294.3321 293.0048 292.2709 290.7893 288.8757 285.9685 284.3954 285.5973 288.5959 291.4951 293.3912 295.3835 297.1514 298.996 300.4147 303.3791 304.5565 304.989 304.8625 304.6055 304.933 305.133 305.0995 304.8525 304.6477 305.2928 306.0739 306.7263 306.5598 306.348 306.3448 306.9197 307.0523 305.5539 305.8127 306.4117 305.9924 304.9635 303.2147 302.1805 300.9853 300.3646 299.3232 299.0318 298.7007 298.1772 298.2766 298.4059 298.111 296.8037 295.1098 293.274 287.6672 288.6299 291.671 293.6635 295.0984 295.8738 295.5213 293.5763 291.4153 285.645 280.1112 283.6718 287.4821 289.7805 290.5588 291.7791 293.6041 295.1696 297.3807 298.2923 298.7541 300.1448 301.4781 302.7864 303.906 305.2361 306.2526 303.513 301.0434 299.2471 297.2009 295.5625 293.9092 291.7751 290.3934 289.3891 288.0597 285.3841 283.6058 282.1416 279.4568 276.9129 278.6569 280.9221 282.5894 283.1997 285.2948 286.7529 287.847 288.3379 287.2262 285.8445 284.4505 283.0708 281.3316 280.4443 281.5009 282.4793 282.6441 282.9787 283.2866 283.1818 282.9891 283.7126 283.2802 283.0824 282.7307 281.8664 280.5828 278.6487 277.2047 275.6271 273.9829 270.8951 267.9354 265.8734 263.7412 261.8326 259.7782 255.9903 255.4836 261.1165 267.1291 266.4152 264.8 266.9187 269.4688 271.4458 273.3611 274.5547 274.959 275.1177 273.9513 272.446 270.9559 268.8086 265.5031 262.7382 260.0562 257.8974 255.4683 247.4728 252.0991 252.8021 250.6364 253.84 255.2804 257.7383 261.0111 263.6362 267.4057 269.1422 270.68 272.031 272.1435 271.6387 270.3652 270.5206 270.3764 267.6495 266.4246 264.6978 262.3551 260.8215 258.7771 256.9201 255.0216 254.6283 252.3739 250.6084 247.4523 244.5474 243.4549 247.0662 251.8648 252.8039 256.3225 256.7878 246.7431 245.4997 247.7294 250.498 252.766 255.153 256.1583 257.8417 259.7299 261.7318 262.7815 263.8359 265.263 266.5479 267.4533 268.1999 268.5657 268.9901 268.1067 263.7831 262.188 262.7539 265.6256 267.833 269.1777 269.9018 270.9396 270.5705 268.1022 263.4286 250.276 259.3631 266.6783 268.4644 269.4941 270.4373 268.2541 267.6039 267.0188 265.2626 260.9611 256.3159 260.2839 262.6943 263.4746 257.2488 251.1503 244.152 251.1134 254.4995 255.6085 257.4793 259.7117 261.1188 262.1793 260.5744 256.7148 249.4059 246.4626 249.3572 253.3647 253.2403 246.5298 251.9876 264.2198 268.1586 270.0366 270.1783 269.8506 269.5232 269.6722 268.9675 266.464 264.127 265.3239 266.1702 266.9409 267.4777 268.248 268.6235 268.6457 267.9792 267.8321 268.3598 268.9858 269.9111 268.2623 266.1289 263.7476 262.357 260.6911 255.6801 251.1716 241.5175 244.9857 248.382 250.9733 254.6141 256.5169 256.9626 254.0883 252.4613 252.0162 250.7929 250.1568 249.8433 249.7926 248.629 249.7772 251.4085 249.1722 241.9256 232.7337 230.3718 230.6738 230.4494 230.6731 230.6485 231.1511 231.0771 231.1094 230.7746 230.3189 232.1836 233.8373 236.5624 237.3543 238.717 240.7995 241.8797 242.96 243.6989 244.2866 244.2453 243.7705 242.992 241.9651 241.4539 240.9361 239.4366 239.0333 238.9593 237.2705
300.9581 299.6255 298.3701 297.3527 295.7486 294.7542 293.4206 290.7697 288.8011 288.2282 284.0154 285.5919 287.9098 291.2209 293.0994 295.4496 297.1031 298.869 300.5113 303.5536 304.5783 305.3164 305.2515 305.2717 305.5134 305.6286 305.7357 305.5503 305.5923 306.2619 306.9104 307.2482 307.3543 307.0573 307.0838 307.4284 307.6378 306.3973 306.1353 306.59 306.547 305.1956 303.7067 302.8196 301.425 300.8083 299.6056 299.5898 299.1106 298.8909 298.9975 298.8208 298.1518 296.8045 294.9684 292.9868 288.5494 289.8218 292.4989 293.7944 295.2792 296.3596 296.2517 294.5472 292.5095 287.5236 283.6519 280.5899 283.0017 285.8727 288.0159 290.3743 292.2457 293.8594 294.8123 296.2186 298.2052 299.8709 301.3321 303.0598 304.3517 305.4754 305.8685 303.4725 301.4338 298.8773 296.762 295.4151 294.243 292.9517 291.8609 290.9671 285.5076 282.5613 281.7838 280.8423 277.2578 278.5462 281.5776 282.5242 282.5894 283.1997 285.2948 286.7529 287.847 288.3379 287.2262 285.8445 284.4505 283.0708 281.3316 280.4443 281.5009 282.4793 282.6441 282.9787 283.2866 283.1818 282.9891 283.7126 283.2802 283.0824 282.7307 281.8664 280.5828 278.6487 277.2047 275.6271 273.9829 270.8951 268.8979 266.4607 264.1399 261.9341 258.8411 255.0137 259.3567 264.7197 268.2774 268.3705 266.9685 267.7554 269.7946 272.3215 274.4219 275.8549 276.4071 276.8143 275.5763 274.0094 271.7572 269.2639 266.1884 263.3387 260.636 258.659 255.4299 249.5112 253.5216 254.6406 254.5071 254.1378 255.1346 258.0045 261.3742 264.4817 267.7331 269.472 271.0089 272.4943 272.6548 271.6669 271.4145 271.4697 270.7624 267.3965 265.7244 263.9684 261.6855 260.166 258.1042 255.9325 254.2971 254.0264 251.2527 248.0553 245.2107 243.8686 245.2164 251.4894 256.4789 257.103 258.3883 260.1901 256.2611 249.1678 246.1932 247.331 250.823 252.7414 255.7322 257.9403 259.6429 262.5547 263.3745 264.6584 265.9304 267.1405 268.4382 269.6097 270.5241 270.5483 269.033 266.8396 264.3509 264.2561 266.6194 268.9557 270.6519 271.383 271.9897 272.3798 269.8378 264.2919 252.159 263.9491 269.1963 270.1289 271.3907 271.8785 270.8137 270.0987 268.7859 266.5655 265.1359 261.0668 260.0482 263.7732 263.9343 255.1599 246.0552 250.9852 255.6414 257.4583 258.9795 260.6977 262.0025 263.3468 268.7437 264.7244 262.0664 255.643 248.0291 249.884 253.2316 254.8242 249.6832 250.3937 261.6977 266.3529 268.4756 270.3121 270.7526 270.7516 270.883 270.9729 267.0629 264.9231 265.1373 265.4505 266.1017 266.2245 266.582 266.7024 266.2249 265.6979 267.4182 269.2108 269.7708 268.6286 268.3962 266.6258 263.5182 261.4879 257.6174 250.496 243.2139 245.9069 248.7527 250.0355 253.7625 256.2916 258.3412 259.2144 255.5443 253.8415 252.6404 252.0378 252.3854 252.3754 251.9352 250.7908 251.562 254.6407 252.8376 245.9609 237.1823 231.2988 230.4478 230.5075 230.4795 230.5027 230.6778 231.0784 230.8222 230.105 230.8304 230.3196 230.9634 233.1072 233.2223 234.6655 239.073 240.3074 241.6363 242.439 243.0629 243.2916 243.1514 242.8682 242.1258 240.9179 240.7453 239.1282 237.3084 236.8756 236.864
301.4816 299.9626 298.643 298.0717 296.0702 294.436 293.1747 291.0423 289.1591 288.8673 286.1123 287.7978 289.7103 290.888 292.3184 294.882 297.3748 298.8071 300.1514 303.6691 304.5806 304.7801 304.6109 304.5515 304.9058 305.5421 305.8683 305.9799 305.9837 306.5255 307.3806 308.0106 308.2828 308.0519 307.9493 308.0878 308.2028 307.1455 307.0677 307.1647 307.0243 306.2319 304.2952 303.3723 302.1962 301.0721 300.2401 300.1851 299.7361 299.1997 299.0127 298.346 296.9341 295.6929 294.3261 291.8418 289.3401 290.7436 293.0078 294.3241 295.8293 297.2382 296.6907 295.1831 293.2534 288.626 285.4007 281.8911 282.2935 284.9094 289.1633 290.3743 292.2457 293.8594 294.8123 296.2186 298.2052 299.8709 301.3321 303.0598 304.3517 305.4754 305.8685 303.4725 301.4338 298.8773 296.762 295.4151 294.243 292.9517 291.8609 290.9671 285.5076 282.5613 281.7838 280.8423 277.2578 278.5462 281.5776 282.5242 284.0321 285.1554 286.7198 287.4247 288.0624 288.8178 288.0129 286.6532 285.5777 283.6467 282.3024 282.5739 283.1526 284.3906 285.1066 285.1168 285.0543 284.7377 284.2687 284.521 284.0664 283.3996 282.5126 281.3773 279.9305 278.3875 276.7411 274.9385 272.5959 269.3661 267.7504 265.8914 264.3749 262.2619 259.3651 255.7585 260.1667 264.1482 267.9503 269.7626 268.7 268.2956 269.8549 272.625 274.635 275.9911 276.9886 277.5374 275.1886 273.4843 271.4563 268.5246 266.1157 263.2114 260.8099 257.8149 254.172 250.7148 253.8842 255.7542 257.2941 256.4146 256.278 258.8604 261.3766 264.1384 268.1518 269.6815 270.81 272.1291 272.3572 272.282 272.6464 272.2727 271.215 267.1483 264.8434 262.6826 260.4931 258.5898 256.6691 254.9646 253.6639 253.5086 249.6151 246.2575 244.641 244.7202 249.6138 254.684 258.8691 260.7613 261.3363 264.4918 262.727 257.8977 251.4384 246.785 248.5749 250.262 253.3391 255.9925 258.8289 262.8437 264.0042 265.3953 266.7003 268.2435 269.5103 271.1516 272.5725 272.5999 271.5226 270.0078 267.9495 267.1078 266.9506 269.8239 271.2285 272.7617 273.0673 273.899 271.1779 261.0811 259.2024 269.6657 270.8269 271.6237 272.9334 273.3322 272.2936 271.3843 270.1399 267.632 265.9679 263.7712 263.7782 264.7437 263.539 250.7512 249.0643 256.9677 258.9808 261.3929 262.5016 264.9198 266.0859 267.4911 271.4612 268.2444 265.318 261.0586 255.1918 251.3849 254.5324 255.5746 254.4007 249.518 260.5534 264.3395 266.6381 268.9286 270.4872 271.2837 271.3708 270.9519 268.5403 265.4765 264.577 264.2126 264.1774 264.4309 264.4519 264.3156 263.9711 264.2998 266.6209 268.4854 269.0895 268.9686 268.0728 267.0705 265.0703 262.8219 259.3031 244.0161 248.6785 251.371 253.2612 253.4032 254.7791 257.672 259.6472 260.5688 257.3043 255.7184 253.9314 253.8246 253.6376 254.2033 253.6559 252.5073 252.377 254.9249 253.5844 247.5254 240.9178 232.7361 230.5332 230.4488 230.4607 230.9686 230.5161 230.3695 230.875 230.2594 230.9274 230.6087 230.3788 230.1269 229.967 232.3491 236.0497 238.4 239.5607 240.8242 241.9525 242.625 242.5747 242.3029 241.8876 240.5494 240.3831 239.4175 237.4409 236.5753 236.4173
301.7602 300.4111 299.4916 298.1512 297.4012 296.0982 294.4003 291.8271 291.2953 291.1381 286.909 285.3093 286.7819 288.7966 292.4897 295.1405 296.0959 297.0861 298.503 302.6499 303.2311 303.3928 303.1524 302.9118 303.7014 304.6578 305.0051 305.4971 305.8383 306.044 306.94 307.3662 307.6688 307.9976 308.1385 308.2117 308.4545 307.8845 307.6703 307.6497 307.4474 306.4294 304.2952 303.3723 302.1962 301.0721 300.2401 300.1851 299.7361 299.1997 299.0127 298.346 296.9341 295.6929 294.3261 291.8418 289.3401 290.7436 293.0078 294.3241 295.8293 297.2382 296.6907 295.1831 293.2534 288.626 285.4007 281.8911 282.2935 284.9094 289.1633 290.7246 291.8156 291.592 295.8555 297.3546 298.8627 300.3801 301.7111 303.3154 304.6183 305.4935 305.8419 303.3781 301.6934 299.8542 298.0757 296.9751 295.0677 294.1891 293.1336 291.2975 284.9388 281.5979 281.0122 279.9367 278.6858 280.4125 283.209 284.9077 285.6862 286.4677 288.1603 288.6931 289.2997 289.6467 288.8755 287.8344 286.0612 284.5322 283.1982 284.8282 285.1103 285.3159 286.135 286.0029 285.785 285.1545 284.4649 283.7476 282.5888 282.1051 280.969 280.4502 279.2285 277.7698 276.4351 275.278 273.1521 270.7455 268.4753 266.0098 263.3148 260.9299 258.5528 255.8622 261.0823 264.815 268.2617 270.3351 270.4325 268.9097 270.1601 272.2161 274.2223 275.7021 277.1515 277.4212 274.1386 272.3493 271.067 268.5869 266.4087 264.0505 261.6792 258.0253 252.6992 253.7744 254.2413 256.0464 258.8653 259.4605 259.3135 259.5805 261.3781 264.3102 268.363 269.8677 271.1668 272.3224 272.8822 273.2668 273.74 273.0823 271.3361 266.7255 264.3387 262.0821 259.6316 258.1788 256.9878 255.4798 253.4714 251.6079 248.605 245.8826 245.2716 246.9991 252.7253 257.6576 260.9155 263.0501 264.0166 266.0427 265.9114 262.8071 258.5039 255.4131 249.9167 247.9062 249.188 251.755 256.3198 262.9373 264.833 266.3467 267.9083 269.1052 270.5839 271.2612 272.0645 273.8897 273.5612 272.5603 270.7104 270.1 269.1385 270.0424 271.3625 272.7538 273.7579 274.2055 271.6474 261.7366 258.3383 269.0268 272.2573 273.2306 274.2405 274.7307 273.2451 271.5462 269.9872 267.9005 265.4189 263.6436 265.4976 265.2396 262.0005 247.8974 253.552 262.1294 263.2813 264.5279 265.7894 269.6651 270.1085 270.9589 271.3822 270.0745 269.4276 267.9315 265.4502 261.5049 258.7104 256.9296 257.0156 253.2163 259.8082 263.0125 265.7657 267.9504 269.82 271.0797 270.9886 269.2067 268.3517 265.3428 263.822 262.9198 262.3065 262.1334 262.0697 262.2672 262.4861 262.915 265.5057 266.886 267.7084 267.477 267.4381 267.2699 265.8217 264.3875 262.3525 255.5439 256.1909 255.2241 257.1409 258.0088 259.3324 260.4236 261.5066 261.8539 259.2752 256.8582 255.3918 254.9639 254.7463 254.6064 254.4946 253.6815 252.7362 254.514 251.8667 246.4308 240.5724 234.2683 230.9599 230.5355 230.8255 230.9469 230.5366 230.1734 230.1717 230.532 229.0874 230.8817 230.6159 230.3199 229.9555 229.8038 234.2871 236.6375 238.0485 239.3221 241.1637 242.3793 242.5327 242.5116 242.1682 240.5818 240.0345 239.7055 238.3091 236.5121 236.2034
302.2473 300.5319 299.6585 298.2361 297.2262 295.3631 294.2748 293.8248 293.1602 292.1089 288.4448 285.6787 286.7888 289.2446 292.4897 295.1405 296.0959 297.0861 298.503 302.6499 303.2311 303.3928 303.1524 302.9118 303.7014 304.6578 305.0051 305.4971 305.8383 306.044 306.94 307.3662 307.6688 307.9976 308.1385 308.2117 308.4545 307.8845 307.6703 307.6497 307.4474 306.4294 305.0549 303.7093 302.8071 301.7512 300.7486 300.3175 299.777 298.773 297.639 296.6976 295.013 293.6407 292.2096 290.5583 291.1304 292.487 293.604 294.8716 296.0381 296.9081 296.6128 295.2567 293.4425 288.7723 284.9925 282.5161 285.7521 282.4223 286.4938 289.2556 288.65 290.4412 295.818 297.8729 299.5685 300.9254 302.8105 304.1727 305.373 305.9365 305.8981 303.4758 302.3102 300.329 298.651 297.2686 296.0813 295.1017 293.7657 292.7484 288.4943 285.9795 284.4512 281.1245 280.2822 282.6545 284.7561 286.506 287.5452 287.8149 289.1524 290.0744 290.4874 290.7299 289.1842 287.8595 286.2983 285.0466 284.9883 286.3015 286.4914 286.2746 286.5832 286.2592 285.6033 284.7002 283.5554 281.9554 280.5996 280.1093 278.8035 278.318 277.588 276.4634 275.7606 275.2856 274.6659 272.0711 268.862 265.6912 262.5036 259.9766 258.2785 257.5399 260.5622 264.1205 269.1802 270.9759 271.6985 270.4744 270.9678 272.8303 274.6073 275.9629 277.2202 275.8799 274.1628 272.0242 269.9461 267.933 266.49 264.5157 261.4091 256.075 252.4528 254.0171 255.5847 258.1559 260.8007 262.9236 263.3158 263.0229 263.1935 265.1265 268.9544 270.8446 272.4026 273.2224 273.8281 274.1486 274.0886 273.3264 271.6097 266.1125 263.4948 260.79 258.1265 256.5025 254.8857 253.6788 251.4544 249.4477 246.0022 245.0974 246.9459 250.516 255.1676 259.4248 261.5831 262.9906 264.5876 267.5291 268.1342 266.6947 263.0976 260.3006 256.0495 250.9433 249.1646 249.9604 254.519 261.6772 263.681 265.4356 267.5623 269.7452 271.7738 272.903 274.5994 275.5132 275.4018 274.5692 272.7536 272.2902 271.7752 271.3127 270.0798 271.0613 272.6757 273.5803 272.2311 268.0251 256.7725 268.3559 273.0768 274.6846 275.5634 275.4176 273.0534 271.08 269.6118 268.5261 267.4638 267.0532 266.0187 263.7029 259.0282 254.0132 261.6974 265.4126 267.0985 268.0829 269.8443 269.9979 270.7984 271.3875 272.5348 270.1682 270.3514 268.958 267.6765 265.4862 263.3747 261.4272 259.8911 257.2678 259.0763 261.0693 262.4659 267.0191 268.7864 269.7462 268.7771 268.5885 267.4915 264.3476 262.8055 261.5142 260.3264 259.3943 259.8235 260.28 261.0568 261.3705 263.1406 265.3332 265.9765 266.3565 266.5547 266.5794 266.6745 266.3107 264.3544 261.2378 260.4395 258.6161 260.8489 261.8559 262.4529 262.6089 262.7169 262.5998 259.7818 257.4762 256.3234 254.749 253.1117 253.144 252.795 251.5377 250.5981 251.5212 248.7131 244.6376 239.1815 234.6133 232.6744 231.6351 230.4779 230.4793 230.6584 230.3864 230.2165 230.2544 230.8282 230.4176 230.7858 230.4356 230.1432 229.9207 232.3591 235.5655 236.8679 238.073 239.8036 241.3198 241.9479 242.237 242.2894 241.0899 240.3908 239.7415 239.0041 237.1962 236.1286
